ply
format ascii 1.0
comment Humanplus generated
element vertex 1521
property float x
property float y
property float z
property uchar red
property uchar green
property uchar blue
end_header
309.651 -857.04 2821 168 162 148
313.155 -858.559 2826 168 163 149
316.558 -859.775 2830 168 162 148
319.969 -860.99 2834 167 162 146
324.073 -864.028 2844 166 162 146
327.967 -866.458 2852 166 162 146
331.994 -869.193 2861 166 163 147
335.571 -870.712 2866 166 163 147
339.159 -872.231 2871 167 163 148
342.757 -873.75 2876 167 164 148
346.366 -875.269 2881 168 164 148
349.743 -876.18 2884 168 165 148
353.248 -877.395 2888 168 165 148
356.515 -878.003 2890 168 165 148
359.91 -878.914 2893 168 164 148
362.936 -878.914 2893 168 165 148
366.088 -879.218 2894 169 165 148
369.624 -880.433 2898 169 164 148
372.912 -881.041 2900 170 163 150
376.593 -882.56 2905 167 160 151
379.893 -883.168 2907 165 159 147
383.328 -884.079 2910 153 152 143
386.637 -884.687 2912 142 146 128
390.217 -885.902 2916 130 127 112
393.806 -887.117 2920 118 108 98
397.403 -888.332 2924 113 106 84
401.42 -890.459 2931 108 101 88
405.589 -892.89 2939 109 104 92
408.802 -893.193 2940 111 107 92
411.876 -893.193 2940 113 107 92
414.951 -893.193 2940 116 108 91
418.025 -893.193 2940 113 106 90
421.1 -893.193 2940 111 106 90
423.598 -891.978 2936 111 105 89
426.668 -891.978 2936 111 105 90
429.738 -891.978 2936 111 106 91
433.104 -892.586 2938 111 107 90
436.918 -894.105 2943 110 104 88
440.594 -895.32 2947 110 103 87
444.73 -897.447 2954 112 107 86
448.729 -899.269 2960 115 110 94
452.129 -899.877 2962 116 112 102
455.227 -899.877 2962 116 114 96
458.479 -900.181 2963 106 108 90
461.266 -899.573 2961 96 101 82
463.736 -898.358 2957 91 92 73
466.197 -897.143 2953 86 75 70
468.967 -896.535 2951 83 77 66
471.573 -895.624 2948 80 79 67
474.334 -895.016 2946 79 78 68
476.118 -892.586 2938 78 78 69
478.702 -891.674 2935 78 78 70
480.458 -889.244 2927 79 77 70
483.188 -888.636 2925 79 77 70
485.25 -886.813 2919 79 77 70
488.303 -886.813 2919 79 76 69
-189.656 -751.759 2483 77 75 60
-187.059 -751.759 2483 63 75 55
-184.463 -751.759 2483 49 50 40
-181.866 -751.759 2483 30 29 26
-179.125 -751.154 2481 11 19 17
-176.032 -749.034 2474 9 12 8
-173.165 -747.823 2470 6 7 6
-170.305 -746.612 2466 3 2 5
-167.114 -743.887 2457 0 1 6
-164.009 -741.465 2449 1 1 7
-161.118 -739.951 2444 1 1 21
-158.303 -738.74 2440 1 1 35
-155.56 -737.832 2437 0 11 35
-152.948 -737.529 2436 0 23 35
-150.277 -736.924 2434 0 19 18
-147.489 -735.713 2430 0 12 1
-144.709 -734.502 2426 0 5 1
-141.996 -733.593 2423 0 1 1
-139.347 -732.988 2421 0 1 1
-136.364 -730.566 2413 0 0 0
-133.507 -728.749 2407 0 2 12
-130.772 -727.538 2403 5 8 23
-127.726 -724.511 2393 10 40 50
-125.066 -723.602 2390 9 64 77
-122.515 -723.299 2389 8 58 72
-119.866 -722.391 2386 8 51 66
-117.273 -721.786 2384 7 51 65
-114.587 -720.575 2380 7 51 64
-111.91 -719.364 2376 7 53 66
-109.425 -719.364 2376 7 55 67
-106.94 -719.364 2376 7 50 62
-104.455 -719.364 2376 5 47 57
-101.971 -719.364 2376 3 41 47
-99.4858 -719.364 2376 2 33 38
-96.9194 -718.758 2374 1 26 33
-94.397 -718.455 2373 1 20 28
-91.8766 -718.153 2372 0 20 25
-89.283 -717.244 2369 0 18 23
-86.7322 -716.639 2367 0 18 21
-84.2569 -716.639 2367 0 16 20
-81.7815 -716.639 2367 0 16 18
-79.4067 -717.547 2370 0 13 16
-77.058 -718.758 2374 0 14 19
-74.6696 -719.666 2377 0 12 21
-72.2445 -720.272 2379 0 17 29
-69.7859 -720.575 2380 0 23 37
-67.3536 -721.18 2382 0 30 43
-64.8081 -720.575 2380 0 41 49
-62.2667 -719.969 2378 0 40 50
-59.7296 -719.364 2376 0 46 50
-57.1485 -718.153 2372 0 41 41
-54.6679 -718.153 2372 0 33 33
-52.1873 -718.153 2372 0 22 22
-49.7067 -718.153 2372 1 9 11
-47.2261 -718.153 2372 1 6 8
-44.821 -719.364 2376 2 3 6
-42.3897 -720.272 2379 2 2 5
-39.9353 -720.877 2381 3 2 4
-37.4768 -721.483 2383 3 4 4
-35.0141 -722.088 2385 9 5 4
-32.5335 -722.391 2386 15 7 6
-30.0509 -722.694 2387 18 6 8
-27.5546 -722.694 2387 20 14 22
-25.0584 -722.694 2387 18 16 37
-22.5621 -722.694 2387 15 20 56
-20.0658 -722.694 2387 19 31 75
-17.5696 -722.694 2387 22 42 62
-15.0796 -722.997 2388 24 40 50
-12.5928 -723.602 2390 25 27 31
-10.0977 -723.905 2391 13 7 12
-7.60355 -724.511 2393 1 8 14
-5.10954 -725.722 2397 6 3 16
-2.60824 -727.235 2402 11 19 25
-0.0964438 -728.446 2406 19 35 34
2.42171 -729.052 2408 26 43 41
4.94404 -729.658 2410 27 45 49
7.48294 -731.474 2416 28 45 46
10.022 -732.382 2419 43 47 44
12.5621 -732.988 2421 58 56 50
15.1064 -733.593 2423 60 61 56
17.6767 -735.107 2428 62 62 56
20.2325 -735.713 2430 63 63 57
22.8018 -736.621 2433 63 63 56
25.2941 -735.107 2428 63 63 56
133.141 -820.789 2711 65 64 59
135.976 -820.789 2711 66 65 59
138.811 -820.789 2711 66 65 59
141.699 -821.092 2712 66 65 58
144.588 -821.395 2713 66 64 58
147.751 -823.211 2719 65 63 57
150.706 -823.817 2721 64 63 57
153.777 -825.028 2725 65 63 56
156.856 -826.239 2729 65 63 56
159.827 -826.844 2731 65 64 57
162.743 -827.147 2732 65 63 57
165.721 -827.753 2734 64 62 57
168.58 -827.753 2734 62 61 55
171.565 -828.358 2736 61 59 53
174.745 -829.872 2741 60 59 52
177.871 -831.083 2745 60 58 52
180.873 -831.688 2747 60 58 51
183.946 -832.597 2750 60 57 51
186.958 -833.202 2752 60 58 51
189.974 -833.808 2754 59 58 51
193.204 -835.322 2759 58 58 51
196.161 -835.624 2760 59 57 51
199.408 -837.138 2765 60 57 51
202.811 -839.258 2772 60 58 51
205.784 -839.56 2773 59 58 51
208.609 -839.258 2772 58 58 51
210.974 -837.138 2765 57 57 50
213.711 -836.533 2763 57 56 50
216.444 -835.927 2761 56 56 49
218.854 -834.111 2755 56 55 49
221.574 -833.505 2753 56 55 50
224.372 -833.202 2752 57 56 51
227.085 -832.597 2750 57 56 51
229.961 -832.597 2750 57 55 51
232.837 -832.597 2750 57 55 50
235.712 -832.597 2750 57 56 50
238.588 -832.597 2750 57 55 50
241.464 -832.597 2750 57 56 51
244.34 -832.597 2750 57 56 51
247.216 -832.597 2750 57 56 51
250.183 -832.899 2751 57 56 51
253.152 -833.202 2752 57 57 51
255.844 -832.597 2750 57 57 51
258.249 -831.083 2745 57 56 51
261.12 -831.083 2745 57 55 50
263.99 -831.083 2745 57 55 49
266.958 -831.386 2746 56 55 50
270.026 -831.991 2748 56 51 50
273 -832.294 2749 56 57 54
276.376 -833.808 2754 71 57 57
279.662 -835.019 2758 85 78 78
283.263 -837.138 2765 112 99 100
286.672 -838.652 2770 139 134 117
290.092 -840.166 2775 154 168 135
293.838 -842.588 2783 168 163 144
297.922 -845.918 2794 169 164 153
301.705 -848.34 2802 169 165 150
305.396 -850.46 2809 168 163 147
308.993 -852.276 2815 166 163 148
312.601 -854.093 2821 166 162 149
316.111 -855.607 2826 166 162 147
319.518 -856.818 2830 166 162 146
323.503 -859.543 2839 166 163 146
327.392 -861.965 2847 166 163 146
331.297 -864.387 2855 166 163 146
334.986 -866.203 2861 166 164 147
338.686 -868.02 2867 166 164 147
342.28 -869.534 2872 167 164 148
345.765 -870.745 2876 167 165 148
349.136 -871.653 2879 167 165 148
352.636 -872.864 2883 167 165 148
356.021 -873.772 2886 168 164 149
359.288 -874.378 2888 168 165 149
362.56 -874.983 2890 168 165 149
365.835 -875.589 2892 168 165 148
369.114 -876.195 2894 169 165 148
372.912 -878.011 2900 169 164 148
376.593 -879.525 2905 171 162 149
379.762 -879.828 2906 172 162 148
383.328 -881.039 2910 167 162 148
386.637 -881.644 2912 162 154 139
390.217 -882.855 2916 147 145 131
393.806 -884.066 2920 132 129 118
397.403 -885.277 2924 120 114 105
401.42 -887.397 2931 107 110 99
405.313 -889.213 2937 107 101 93
408.802 -890.122 2940 107 103 90
411.876 -890.122 2940 112 104 87
414.951 -890.122 2940 116 105 89
418.168 -890.424 2941 113 105 90
421.1 -890.122 2940 110 106 89
424.175 -890.122 2940 111 106 89
427.249 -890.122 2940 111 107 90
430.47 -890.424 2941 111 107 91
433.841 -891.03 2943 111 106 90
437.512 -892.241 2947 109 104 88
441.491 -894.057 2953 106 103 86
445.031 -894.966 2956 106 102 83
448.88 -896.48 2961 105 105 88
452.282 -897.085 2963 114 107 93
455.381 -897.085 2963 123 109 94
458.789 -897.691 2965 115 111 95
461.266 -896.48 2961 106 111 87
463.736 -895.269 2957 99 115 80
466.197 -894.057 2953 92 95 75
468.967 -893.452 2951 86 73 71
471.573 -892.544 2948 80 74 70
474.334 -891.938 2946 78 75 69
476.767 -890.727 2942 76 77 68
479.028 -889.213 2937 78 77 68
482.099 -889.213 2937 79 77 69
484.675 -888.305 2934 79 77 69
485.25 -883.764 2919 79 77 69
488.303 -883.764 2919 79 75 68
490.513 -882.25 2914 78 75 68
493.561 -882.25 2914 77 74 67
-192.253 -749.165 2483 76 76 65
-189.503 -748.561 2481 71 75 58
-186.909 -748.561 2481 57 58 51
-184.314 -748.561 2481 42 36 34
-181.793 -748.863 2482 30 24 17
-179.053 -748.26 2480 18 12 10
-176.032 -746.449 2474 14 11 2
-173.165 -745.243 2470 11 5 1
-170.236 -743.734 2465 5 3 0
-167.114 -741.32 2457 0 1 4
-164.009 -738.906 2449 1 1 8
-161.052 -737.096 2443 1 1 26
-158.238 -735.889 2439 1 3 44
-155.496 -734.984 2436 0 10 46
-152.823 -734.381 2434 0 21 48
-150.216 -734.079 2433 0 26 24
-147.489 -733.174 2430 0 13 0
-144.709 -731.967 2426 0 2 1
-141.996 -731.062 2423 0 2 1
-139.405 -730.76 2422 0 1 1
-136.42 -728.346 2414 0 1 0
-133.618 -726.838 2409 0 0 11
-130.881 -725.631 2405 5 13 21
-127.779 -722.312 2394 10 43 47
-125.066 -721.105 2390 9 53 73
-122.464 -720.502 2388 9 56 70
-119.866 -719.898 2386 8 54 66
-117.273 -719.295 2384 8 51 65
-114.587 -718.088 2380 7 51 64
-111.91 -716.881 2376 7 51 66
-109.425 -716.881 2376 7 51 67
-106.94 -716.881 2376 7 48 66
-104.455 -716.881 2376 7 48 64
-101.928 -716.579 2375 6 46 55
-99.4021 -716.278 2374 4 40 45
-96.8378 -715.674 2372 2 31 38
-94.3174 -715.372 2371 1 27 30
-91.7604 -714.769 2369 0 23 27
-89.2076 -714.166 2367 0 23 24
-86.659 -713.562 2365 0 22 23
-84.1857 -713.562 2365 0 20 22
-81.7124 -713.562 2365 0 19 19
-79.4067 -715.071 2370 0 16 15
-76.9931 -715.674 2372 0 11 13
-74.6068 -716.579 2375 0 11 10
-72.1838 -717.183 2377 0 10 19
-69.7566 -717.786 2379 0 15 28
-67.2687 -717.786 2379 0 19 39
-64.7264 -717.183 2377 0 27 49
-62.2144 -716.881 2376 0 33 52
-59.6291 -715.674 2372 0 38 54
-57.1485 -715.674 2372 0 45 47
-54.6679 -715.674 2372 0 38 39
-52.1873 -715.674 2372 0 31 28
-49.7067 -715.674 2372 1 19 16
-47.2461 -715.976 2373 1 8 11
-44.821 -716.881 2376 2 6 5
-42.3541 -717.183 2377 2 3 6
-39.9018 -717.786 2379 2 3 6
-37.4454 -718.39 2381 3 3 6
-34.9847 -718.993 2383 6 4 6
-32.5063 -719.295 2384 10 4 5
-30.0131 -719.295 2384 11 6 4
-27.5315 -719.597 2385 13 9 20
-25.0374 -719.597 2385 16 16 36
-22.5432 -719.597 2385 19 23 77
-20.049 -719.597 2385 32 41 117
-17.5622 -719.898 2386 44 67 88
-15.0733 -720.2 2387 39 53 58
-12.5823 -720.502 2388 34 31 34
-10.0977 -721.407 2391 18 15 9
-7.60355 -722.01 2393 2 4 6
-5.10954 -723.217 2397 4 4 3
-2.60824 -724.726 2402 6 6 17
-0.0964438 -725.933 2406 13 27 31
2.42171 -726.536 2408 21 49 43
4.94404 -727.14 2410 24 48 54
7.47365 -728.045 2413 28 43 46
10.0013 -728.346 2414 36 46 38
12.5517 -729.855 2419 45 53 47
15.0939 -730.458 2421 53 60 56
17.6621 -731.967 2426 61 62 57
20.2158 -732.57 2428 62 63 57
22.755 -732.57 2428 63 63 57
25.2941 -732.57 2428 63 63 56
27.7874 -731.364 2424 63 63 57
135.926 -817.655 2710 65 64 58
138.76 -817.655 2710 66 65 58
141.594 -817.655 2710 66 65 58
144.588 -818.56 2713 66 64 58
147.48 -818.862 2714 65 64 57
150.539 -820.069 2718 65 63 57
153.551 -820.974 2721 65 63 56
156.856 -823.387 2729 66 63 56
159.886 -824.293 2732 66 64 56
162.862 -824.896 2734 66 64 57
165.782 -825.198 2735 65 63 58
168.704 -825.499 2736 64 61 55
171.69 -826.103 2738 62 60 52
174.936 -827.913 2744 60 58 52
178 -828.818 2747 60 57 52
181.136 -830.025 2751 60 57 52
184.348 -831.534 2756 61 58 51
187.434 -832.439 2759 62 58 51
190.526 -833.344 2762 61 59 51
193.765 -834.853 2767 59 58 51
196.871 -835.758 2770 60 58 51
200.201 -837.568 2776 61 57 51
203.47 -839.077 2781 60 58 51
206.527 -839.68 2783 59 57 51
209.286 -839.077 2781 58 57 50
211.661 -836.965 2774 57 57 50
214.33 -836.06 2771 57 56 49
217.071 -835.456 2769 56 56 49
219.569 -833.948 2764 56 55 49
222.218 -833.042 2761 56 55 50
225.024 -832.741 2760 57 56 51
227.745 -832.137 2758 57 56 51
230.63 -832.137 2758 57 55 51
233.514 -832.137 2758 57 55 51
236.398 -832.137 2758 57 55 50
239.282 -832.137 2758 57 55 51
242.342 -832.741 2760 57 56 51
245.229 -832.741 2760 57 55 51
248.115 -832.741 2760 57 56 51
251.001 -832.741 2760 57 56 51
253.98 -833.042 2761 57 56 51
256.402 -831.534 2756 57 56 51
258.814 -830.025 2751 57 57 51
261.405 -829.12 2748 57 57 51
264.279 -829.12 2748 57 57 50
267.153 -829.12 2748 57 57 49
270.026 -829.12 2748 56 55 47
273 -829.422 2749 56 52 45
276.376 -830.93 2754 62 53 42
279.662 -832.137 2758 68 51 56
283.263 -834.249 2765 88 75 69
286.672 -835.758 2770 108 100 92
290.092 -837.266 2775 122 127 114
293.733 -839.378 2782 137 149 135
297.602 -842.094 2791 152 160 156
301.382 -844.508 2799 168 170 152
304.962 -846.318 2805 168 165 148
308.334 -847.525 2809 168 164 148
311.936 -849.335 2815 167 163 148
315.44 -850.844 2820 166 162 147
318.953 -852.352 2825 166 163 146
322.591 -854.163 2831 167 163 146
326.587 -856.878 2840 166 163 146
330.833 -860.197 2851 166 163 146
334.283 -861.404 2855 166 164 146
337.978 -863.214 2861 166 164 147
341.685 -865.024 2867 167 164 147
345.284 -866.533 2872 167 165 148
348.53 -867.136 2874 167 165 148
352.025 -868.343 2878 168 165 149
355.405 -869.249 2881 168 165 149
358.915 -870.455 2885 168 165 149
362.183 -871.059 2887 168 165 149
365.455 -871.662 2889 167 165 148
368.859 -872.567 2892 167 165 147
372.655 -874.378 2898 167 164 147
376.334 -875.886 2903 168 163 146
379.631 -876.49 2905 170 163 149
383.196 -877.697 2909 167 163 152
386.637 -878.602 2912 164 162 151
390.217 -879.809 2916 156 155 150
393.806 -881.016 2920 148 148 138
397.403 -882.222 2924 137 136 126
401.42 -884.334 2931 125 125 110
405.313 -886.145 2937 117 113 94
408.802 -887.05 2940 109 101 88
411.876 -887.05 2940 110 103 82
414.951 -887.05 2940 110 104 86
418.168 -887.352 2941 111 105 90
421.387 -887.653 2942 111 105 89
424.607 -887.955 2943 111 106 88
428.266 -889.162 2947 112 108 90
431.495 -889.464 2948 112 106 91
435.02 -890.369 2951 112 104 90
438.403 -890.972 2953 108 103 88
441.94 -891.877 2956 105 103 84
445.784 -893.386 2961 105 101 80
449.335 -894.291 2964 104 99 82
452.74 -894.895 2966 109 103 83
455.842 -894.895 2966 115 104 92
458.789 -894.593 2965 115 108 100
461.266 -893.386 2961 115 115 93
463.736 -892.179 2957 109 116 86
466.512 -891.576 2955 103 115 81
468.967 -890.369 2951 96 92 76
471.733 -889.765 2949 89 68 73
474.495 -889.162 2947 84 72 69
477.415 -888.86 2946 79 76 68
480.496 -888.86 2946 78 76 66
483.577 -888.86 2946 78 78 67
484.675 -885.24 2934 78 77 68
487.411 -884.636 2932 79 77 68
489.641 -883.128 2927 78 75 67
492.702 -883.128 2927 77 75 67
493.561 -879.205 2914 76 74 66
-192.175 -746.27 2482 73 77 65
-189.503 -745.969 2481 65 65 58
-186.909 -745.969 2481 50 44 50
-184.314 -745.969 2481 35 33 34
-181.719 -745.969 2481 30 17 18
-179.053 -745.669 2480 24 17 12
-176.032 -743.865 2474 20 13 6
-173.094 -742.361 2469 15 8 3
-170.167 -740.858 2464 8 2 1
-166.91 -737.851 2454 0 1 2
-163.808 -735.446 2446 1 1 4
-160.921 -733.942 2441 1 1 15
-158.173 -733.04 2438 1 1 26
-155.432 -732.138 2435 0 11 36
-152.823 -731.838 2434 0 26 47
-150.154 -731.236 2432 0 22 24
-147.489 -730.635 2430 0 10 1
-144.709 -729.432 2426 0 4 1
-141.996 -728.53 2423 0 2 1
-139.232 -727.328 2419 0 2 1
-136.25 -724.922 2411 0 2 1
-133.618 -724.321 2409 0 1 7
-130.827 -722.817 2404 5 2 13
-127.726 -719.51 2393 10 26 39
-125.014 -718.307 2389 10 47 65
-122.413 -717.706 2387 9 54 65
-119.866 -717.405 2386 9 57 66
-117.273 -716.804 2384 8 54 65
-114.587 -715.601 2380 8 51 64
-111.91 -714.399 2376 7 51 65
-109.425 -714.399 2376 7 50 65
-106.895 -714.098 2375 7 49 65
-104.411 -714.098 2375 8 49 66
-101.928 -714.098 2375 9 49 59
-99.3184 -713.196 2372 6 48 53
-96.7153 -712.294 2369 3 40 45
-94.1583 -711.693 2367 2 33 38
-91.6442 -711.392 2366 0 29 34
-89.0568 -710.49 2363 0 27 30
-86.5857 -710.49 2363 0 25 29
-84.1145 -710.49 2363 0 24 28
-81.7124 -711.091 2365 0 22 25
-79.3397 -711.993 2368 0 20 22
-76.9282 -712.595 2370 0 15 18
-74.544 -713.497 2373 0 10 15
-72.1534 -714.399 2376 0 10 17
-69.7273 -715 2378 0 9 19
-67.2122 -714.699 2377 0 13 24
-64.6174 -713.497 2373 0 15 30
-62.1358 -713.497 2373 0 22 37
-59.6291 -713.196 2372 0 29 44
-57.1485 -713.196 2372 0 36 47
-54.6679 -713.196 2372 0 44 49
-52.1873 -713.196 2372 0 36 41
-49.7277 -713.497 2373 1 28 32
-47.2461 -713.497 2373 1 19 23
-44.821 -714.399 2376 2 11 15
-42.3541 -714.699 2377 2 8 14
-39.885 -715 2378 2 3 13
-37.4139 -715.301 2379 2 3 11
-34.9554 -715.902 2381 3 5 9
-32.479 -716.203 2382 4 4 6
-29.988 -716.203 2382 5 4 4
-27.4969 -716.203 2382 5 10 15
-25.0164 -716.503 2383 14 16 26
-22.5243 -716.503 2383 23 25 51
-20.0322 -716.503 2383 45 41 76
-17.5548 -717.105 2385 66 58 78
-15.067 -717.405 2386 54 73 80
-12.577 -717.706 2387 42 54 67
-10.0934 -718.608 2390 22 18 54
-7.60355 -719.51 2393 2 8 28
-5.10954 -720.713 2397 1 3 2
-2.60824 -722.216 2402 0 7 17
-0.0964438 -723.419 2406 8 17 31
2.42171 -724.02 2408 16 39 42
4.94404 -724.621 2410 22 54 53
7.47365 -725.523 2413 27 46 47
10.0013 -725.824 2414 29 41 40
12.5465 -727.027 2418 31 50 48
15.0814 -727.328 2419 45 64 56
17.6403 -728.53 2423 59 63 56
20.1992 -729.432 2426 61 62 56
22.7456 -729.733 2427 63 63 56
25.2733 -729.432 2426 64 63 57
27.7645 -728.229 2422 64 63 57
144.588 -815.725 2713 65 64 57
147.48 -816.026 2714 65 64 57
150.373 -816.327 2715 65 63 57
153.551 -818.131 2721 66 62 57
156.914 -820.837 2730 66 63 56
160.003 -822.039 2734 66 64 56
162.981 -822.641 2736 66 64 57
165.964 -823.242 2738 66 64 58
168.827 -823.242 2738 65 62 56
171.879 -824.144 2741 62 60 55
175 -825.347 2745 59 59 54
178.324 -827.452 2752 60 56 53
181.466 -828.654 2756 60 58 53
184.615 -829.857 2760 62 59 53
187.773 -831.06 2764 64 60 53
190.94 -832.262 2768 62 61 53
193.975 -832.864 2770 60 60 53
197.298 -834.668 2776 61 59 53
200.634 -836.472 2782 61 59 52
203.982 -838.276 2788 60 59 51
207.046 -838.877 2790 58 57 50
209.738 -837.975 2787 58 55 50
212.195 -836.171 2781 57 56 49
214.871 -835.269 2778 57 56 49
217.541 -834.367 2775 56 55 49
220.125 -833.164 2771 56 55 49
222.782 -832.262 2768 56 55 50
225.676 -832.262 2768 57 56 51
228.489 -831.962 2767 57 56 51
231.382 -831.962 2767 57 55 51
234.276 -831.962 2767 57 55 51
237.17 -831.962 2767 57 55 50
240.063 -831.962 2767 57 56 51
243.22 -832.864 2770 57 56 51
246.117 -832.864 2770 57 56 51
249.014 -832.864 2770 57 56 51
251.82 -832.563 2769 57 56 51
254.715 -832.563 2769 57 56 51
257.239 -831.36 2765 57 57 51
259.472 -829.256 2758 57 57 51
261.881 -827.752 2753 57 58 51
264.375 -826.549 2749 57 60 51
267.25 -826.549 2749 57 59 50
270.125 -826.549 2749 56 59 50
273.496 -828.053 2754 55 56 47
276.376 -828.053 2754 53 52 45
279.662 -829.256 2758 51 52 51
283.263 -831.36 2765 64 51 56
286.672 -832.864 2770 76 72 71
290.092 -834.367 2775 91 90 87
293.733 -836.472 2782 105 122 107
297.282 -838.276 2788 136 156 127
300.844 -840.08 2794 167 158 138
304.309 -841.583 2799 169 164 150
307.895 -843.387 2805 170 166 150
311.272 -844.59 2809 168 165 150
314.657 -845.793 2813 166 164 148
317.937 -846.695 2816 167 163 147
321.68 -848.799 2823 167 163 146
325.667 -851.505 2832 167 163 146
329.557 -853.911 2840 166 163 146
333.815 -857.218 2851 166 164 146
337.151 -858.12 2854 166 164 147
340.85 -859.924 2860 167 164 148
344.442 -861.428 2865 167 165 148
347.802 -862.33 2868 168 165 148
351.413 -863.833 2873 168 165 148
354.788 -864.735 2876 168 165 148
358.293 -865.938 2880 168 165 148
361.556 -866.539 2882 167 165 148
364.823 -867.14 2884 166 164 147
368.477 -868.644 2889 166 164 146
372.269 -870.448 2895 165 164 146
375.945 -871.951 2900 166 163 146
379.5 -873.154 2904 167 163 148
382.933 -874.056 2907 167 163 150
386.371 -874.958 2910 166 163 149
390.083 -876.461 2915 165 163 149
393.671 -877.664 2919 164 158 143
397.267 -878.867 2923 154 155 137
401.283 -880.971 2930 143 140 124
405.313 -883.076 2937 127 124 112
408.802 -883.978 2940 111 114 100
412.297 -884.88 2943 108 101 87
415.798 -885.782 2946 104 103 88
419.163 -886.383 2948 108 105 88
422.532 -886.985 2950 112 104 87
425.906 -887.586 2952 112 105 87
429.429 -888.488 2955 112 106 88
432.666 -888.789 2956 112 106 90
436.052 -889.39 2958 112 104 88
439.442 -889.992 2960 108 102 86
442.837 -890.593 2962 104 101 83
446.386 -891.495 2965 104 98 81
449.941 -892.397 2968 103 100 82
453.198 -892.698 2969 105 100 83
456.303 -892.698 2969 106 102 87
459.408 -892.698 2969 115 103 91
461.89 -891.495 2965 123 109 92
464.363 -890.292 2961 119 117 93
467.46 -890.292 2961 114 115 89
470.556 -890.292 2961 106 112 85
473.813 -890.593 2962 97 89 79
476.91 -890.593 2962 89 68 74
480.332 -891.194 2964 81 74 71
483.432 -891.194 2964 79 74 67
486.531 -891.194 2964 77 76 66
489.631 -891.194 2964 78 77 66
492.232 -890.292 2961 78 76 66
490.812 -882.174 2934 77 74 66
493.88 -882.174 2934 76 74 66
494.746 -878.265 2921 75 74 66
496.608 -876.161 2914 74 74 66
496.398 -870.448 2895 75 74 66
-192.175 -743.677 2482 71 74 65
-189.503 -743.377 2481 63 65 57
-186.909 -743.377 2481 49 46 49
-184.314 -743.377 2481 35 36 34
-181.719 -743.377 2481 39 33 19
-179.053 -743.077 2480 43 27 14
-176.032 -741.28 2474 34 22 9
-173.024 -739.482 2468 25 12 5
-170.029 -737.684 2462 12 5 1
-166.842 -734.987 2453 0 0 1
-163.808 -732.89 2446 1 0 0
-160.855 -731.092 2440 1 0 4
-158.043 -729.894 2436 1 3 7
-155.368 -729.295 2434 0 8 27
-152.697 -728.695 2432 0 21 46
-150.092 -728.396 2431 0 24 24
-147.489 -728.096 2430 0 11 2
-144.709 -726.898 2426 0 1 2
-141.996 -725.999 2423 0 2 1
-139.232 -724.8 2419 0 2 1
-136.25 -722.403 2411 0 2 1
-133.452 -720.905 2406 0 1 3
-130.555 -718.808 2399 3 4 5
-127.672 -716.71 2392 5 11 31
-125.014 -715.811 2389 7 34 56
-122.413 -715.212 2387 10 57 61
-119.816 -714.613 2385 10 57 66
-117.273 -714.313 2384 10 55 65
-114.635 -713.414 2381 9 52 64
-111.91 -711.916 2376 8 50 64
-109.425 -711.916 2376 8 49 63
-106.895 -711.616 2375 8 49 65
-104.411 -711.616 2375 9 50 67
-101.799 -710.718 2372 10 54 64
-99.1927 -709.819 2369 8 51 61
-96.552 -708.62 2365 7 46 53
-93.9992 -708.021 2363 4 40 45
-91.4505 -707.422 2361 2 34 40
-88.9815 -707.422 2361 1 31 35
-86.5124 -707.422 2361 1 27 35
-84.1145 -708.021 2363 0 26 34
-81.7124 -708.62 2365 0 25 32
-79.3397 -709.519 2368 0 22 29
-76.9282 -710.118 2370 0 18 24
-74.544 -711.017 2373 0 14 19
-72.1534 -711.916 2376 0 11 14
-69.7273 -712.515 2378 0 10 9
-67.1839 -711.916 2376 0 8 10
-64.6174 -711.017 2373 0 11 10
-62.1358 -711.017 2373 0 12 22
-59.6291 -710.718 2372 0 20 34
-57.1485 -710.718 2372 0 27 47
-54.6679 -710.718 2372 0 34 59
-52.2093 -711.017 2373 0 42 54
-49.7277 -711.017 2373 0 34 48
-47.2859 -711.616 2375 1 28 36
-44.821 -711.916 2376 1 22 24
-42.3541 -712.216 2377 2 14 22
-39.885 -712.515 2378 2 9 20
-37.3982 -712.515 2378 2 2 16
-34.926 -712.815 2379 4 4 11
-32.4517 -713.115 2380 6 4 8
-29.9628 -713.115 2380 9 6 4
-27.4738 -713.115 2380 12 11 10
-24.9849 -713.115 2380 16 15 15
-22.4959 -713.115 2380 20 18 25
-20.0154 -713.414 2381 34 34 35
-17.5401 -714.013 2383 49 51 69
-15.0607 -714.613 2385 54 77 102
-12.5665 -714.613 2385 59 93 101
-10.0892 -715.811 2389 40 47 99
-7.60355 -717.01 2393 21 8 50
-5.11167 -718.508 2398 11 5 1
-2.61041 -720.306 2404 1 2 16
-0.0964839 -721.205 2407 6 16 31
2.42271 -721.804 2409 12 34 42
4.94609 -722.403 2411 19 44 52
7.47055 -722.703 2412 26 47 47
9.99711 -723.002 2413 29 43 42
12.5206 -723.002 2413 33 42 49
15.0752 -724.5 2418 47 58 56
17.6185 -725.1 2420 61 65 56
20.1742 -725.999 2423 63 64 55
22.7269 -726.598 2425 65 63 56
25.2316 -725.699 2422 65 64 57
27.7645 -725.699 2422 65 64 58
147.425 -812.891 2713 65 64 57
150.373 -813.49 2715 65 64 57
153.382 -814.389 2718 65 63 57
157.029 -818.584 2732 66 63 57
160.413 -821.28 2741 65 64 56
163.279 -821.28 2741 65 64 57
166.146 -821.28 2741 65 64 57
169.012 -821.28 2741 66 64 57
172.129 -822.479 2745 64 62 57
175.255 -823.677 2749 62 60 56
178.454 -825.175 2754 62 59 54
181.531 -826.074 2757 61 60 54
184.682 -827.273 2761 62 61 54
187.977 -829.071 2767 64 62 54
191.216 -830.569 2772 62 62 54
194.395 -831.767 2776 61 61 54
197.724 -833.565 2782 61 61 54
200.994 -835.063 2787 61 61 53
204.201 -836.262 2791 59 60 51
207.269 -836.861 2793 58 58 50
210.039 -836.262 2791 57 56 49
212.729 -835.363 2788 57 55 49
215.335 -834.164 2784 56 55 49
218.09 -833.565 2782 56 54 49
220.681 -832.367 2778 56 55 49
223.426 -831.767 2776 56 55 50
226.247 -831.468 2775 57 56 50
229.149 -831.468 2775 57 57 51
232.051 -831.468 2775 57 56 51
234.953 -831.468 2775 57 56 51
237.855 -831.468 2775 57 57 50
240.757 -831.468 2775 58 57 51
243.923 -832.367 2778 57 58 51
246.828 -832.367 2778 57 58 51
249.733 -832.367 2778 57 57 51
252.547 -832.067 2777 57 57 51
255.267 -831.468 2775 57 57 50
257.797 -830.269 2771 57 57 51
260.131 -828.471 2765 57 57 51
262.451 -826.674 2759 57 58 51
264.856 -825.175 2754 57 59 51
267.736 -825.175 2754 57 59 52
270.616 -825.175 2754 57 59 52
273.496 -825.175 2754 57 59 50
276.778 -826.374 2758 55 55 48
279.966 -827.273 2761 53 52 46
283.263 -828.471 2765 58 51 43
286.672 -829.97 2770 63 47 51
290.092 -831.468 2775 71 69 59
293.627 -833.265 2781 80 92 78
297.069 -834.764 2786 106 119 97
300.198 -835.363 2788 132 143 124
303.766 -837.161 2794 148 150 151
307.236 -838.659 2799 164 169 151
310.496 -839.558 2802 166 167 151
313.762 -840.456 2805 168 165 149
317.147 -841.655 2809 167 164 147
320.882 -843.752 2816 167 162 147
324.747 -846.149 2824 166 163 146
328.628 -848.546 2832 166 163 146
332.527 -850.943 2840 166 164 146
336.796 -854.239 2851 167 164 147
340.135 -855.138 2854 167 164 148
343.721 -856.636 2859 167 164 148
347.196 -857.835 2863 167 165 148
350.679 -859.033 2867 167 165 147
354.294 -860.532 2872 167 165 146
357.671 -861.43 2875 168 164 146
361.054 -862.329 2878 167 164 146
364.443 -863.228 2881 167 163 146
367.839 -864.127 2884 166 164 145
371.884 -866.524 2892 166 164 145
375.556 -868.022 2897 166 163 145
379.108 -869.221 2901 166 162 146
382.801 -870.719 2906 166 162 147
386.238 -871.618 2909 166 162 148
389.95 -873.116 2914 165 163 148
393.536 -874.314 2918 165 164 148
396.996 -875.213 2921 159 160 147
401.146 -877.61 2929 153 156 139
405.313 -880.007 2937 142 142 130
409.219 -881.805 2943 132 128 111
412.717 -882.704 2946 123 116 92
416.503 -884.202 2951 114 100 89
420.158 -885.401 2955 111 104 86
423.678 -886.3 2958 109 102 86
426.916 -886.599 2959 110 103 85
430.446 -887.498 2962 112 104 87
433.69 -887.798 2963 111 105 89
436.936 -888.097 2964 111 105 86
440.184 -888.397 2965 108 103 83
443.584 -888.996 2967 106 101 83
446.988 -889.596 2969 106 101 82
450.396 -890.195 2971 106 101 83
453.656 -890.494 2972 106 101 83
456.918 -890.794 2973 107 101 83
460.181 -891.094 2974 111 101 82
463.292 -891.094 2974 114 101 91
466.402 -891.094 2974 114 108 99
469.512 -891.094 2974 114 115 96
472.622 -891.094 2974 111 113 93
475.732 -891.094 2974 109 109 86
479.164 -891.693 2976 100 91 79
482.114 -891.393 2975 92 78 74
485.226 -891.393 2975 86 78 68
488.173 -891.094 2974 80 75 66
490.622 -889.895 2970 78 75 63
492.564 -887.798 2963 76 74 64
493.99 -884.801 2953 76 74 64
493.88 -879.109 2934 75 74 65
494.746 -875.213 2921 75 74 65
496.608 -873.116 2914 75 74 65
499.656 -873.116 2914 75 74 65
501.84 -871.618 2909 75 74 66
502.453 -867.423 2895 75 75 66
-195.006 -741.979 2485 80 77 67
-192.175 -741.083 2482 70 76 65
-189.503 -740.785 2481 60 60 58
-186.909 -740.785 2481 47 40 52
-184.314 -740.785 2481 34 43 41
-181.719 -740.785 2481 48 50 31
-179.053 -740.486 2480 61 40 23
-176.175 -739.292 2476 48 36 14
-173.024 -736.903 2468 34 20 8
-169.96 -734.813 2461 17 4 2
-166.706 -731.827 2451 0 1 1
-163.54 -729.14 2442 1 0 0
-160.723 -727.946 2438 1 1 3
-157.979 -727.05 2435 1 1 7
-155.304 -726.453 2433 0 10 27
-152.634 -725.856 2431 0 25 47
-150.03 -725.557 2430 0 19 27
-147.428 -725.259 2429 0 7 6
-144.709 -724.363 2426 0 3 4
-142.055 -723.766 2424 0 1 1
-139.232 -722.273 2419 0 1 1
-136.25 -719.884 2411 0 2 1
-133.452 -718.391 2406 0 1 2
-130.555 -716.301 2399 0 1 3
-127.672 -714.211 2392 0 9 24
-125.014 -713.315 2389 5 22 46
-122.413 -712.718 2387 10 47 57
-119.816 -712.121 2385 11 59 68
-117.273 -711.822 2384 11 54 65
-114.635 -710.927 2381 10 50 63
-111.91 -709.434 2376 8 48 61
-109.379 -709.135 2375 8 47 60
-106.895 -709.135 2375 8 47 62
-104.323 -708.538 2373 10 48 64
-101.713 -707.642 2370 11 52 64
-99.0253 -706.149 2365 11 55 64
-96.4704 -705.552 2363 10 51 60
-93.9196 -704.955 2361 7 48 56
-91.4505 -704.955 2361 4 42 50
-88.9815 -704.955 2361 3 36 43
-86.5124 -704.955 2361 1 33 40
-84.1145 -705.552 2363 1 28 37
-81.747 -706.448 2366 0 27 34
-79.3397 -707.045 2368 0 24 31
-76.9282 -707.642 2370 0 21 26
-74.544 -708.538 2373 0 17 22
-72.1534 -709.434 2376 0 14 18
-69.698 -709.732 2377 0 12 14
-67.1839 -709.434 2376 0 11 14
-64.6174 -708.538 2373 0 10 13
-62.1358 -708.538 2373 0 11 18
-59.6542 -708.538 2373 0 12 24
-57.1967 -708.836 2374 0 17 32
-54.714 -708.836 2374 0 22 40
-52.2533 -709.135 2375 0 31 42
-49.7696 -709.135 2375 0 37 45
-47.2859 -709.135 2375 0 33 40
-44.8399 -709.732 2377 1 34 35
-42.3541 -709.732 2377 1 25 32
-39.885 -710.031 2378 2 18 30
-37.3982 -710.031 2378 2 11 33
-34.9113 -710.031 2378 5 3 35
-32.4245 -710.031 2378 8 5 20
-29.9376 -710.031 2378 13 5 4
-27.4507 -710.031 2378 18 11 9
-24.9639 -710.031 2378 17 14 15
-22.4865 -710.329 2379 16 18 22
-19.9986 -710.329 2379 24 27 30
-17.5254 -710.927 2381 32 51 64
-15.048 -711.524 2383 54 91 97
-12.5665 -712.121 2385 76 82 87
-10.0765 -712.419 2386 58 70 76
-7.59084 -713.315 2389 40 28 42
-5.10314 -714.808 2394 21 7 8
-2.60715 -716.898 2401 1 8 18
-0.0964037 -718.093 2405 5 9 27
2.42171 -718.988 2408 8 28 37
4.94404 -719.585 2410 16 42 48
7.46746 -719.884 2411 24 44 45
9.98882 -719.884 2411 30 41 42
12.5102 -719.884 2411 35 48 49
15.0565 -721.078 2415 49 60 56
17.5966 -721.676 2417 63 63 56
20.1492 -722.571 2420 65 64 57
22.68 -722.571 2420 67 64 58
25.2108 -722.571 2420 66 64 59
27.4664 -715.405 2396 65 64 58
29.9721 -715.405 2396 65 63 58
160.822 -820.507 2748 65 64 57
163.696 -820.507 2748 64 63 56
166.57 -820.507 2748 65 63 56
169.444 -820.507 2748 66 63 57
172.38 -820.805 2749 66 64 57
175.574 -822.298 2754 65 62 57
178.907 -824.388 2761 64 61 57
181.795 -824.388 2761 62 62 57
185.084 -826.18 2767 63 61 58
188.249 -827.374 2771 63 62 57
191.354 -828.27 2774 63 62 56
194.675 -830.061 2780 62 61 55
198.009 -831.853 2786 62 61 54
200.994 -832.151 2787 61 61 53
204.128 -833.047 2790 59 60 52
207.269 -833.943 2793 57 58 51
210.34 -834.54 2795 57 56 50
213.11 -833.943 2793 56 55 49
215.722 -832.748 2789 56 54 49
218.482 -832.151 2787 55 54 49
221.158 -831.256 2784 56 54 49
223.989 -830.957 2783 56 55 50
226.818 -830.658 2782 57 55 50
229.645 -830.36 2781 57 57 50
232.553 -830.36 2781 57 57 50
235.461 -830.36 2781 57 57 50
238.37 -830.36 2781 58 58 50
241.278 -830.36 2781 58 59 51
244.45 -831.256 2784 58 60 51
247.272 -830.957 2783 57 58 51
250.093 -830.658 2782 57 57 51
252.911 -830.36 2781 56 58 51
255.635 -829.763 2779 56 58 50
258.262 -828.867 2776 56 57 50
260.695 -827.374 2771 56 57 51
263.022 -825.583 2765 56 57 51
265.337 -823.791 2759 57 58 51
268.222 -823.791 2759 57 59 51
271.107 -823.791 2759 58 59 52
273.993 -823.791 2759 59 59 51
277.079 -824.388 2761 57 58 51
280.372 -825.583 2765 55 56 48
283.571 -826.478 2768 52 54 46
286.879 -827.673 2772 49 51 48
290.092 -828.568 2775 52 46 50
293.627 -830.36 2781 55 68 61
296.855 -831.256 2784 76 85 72
299.982 -831.853 2786 97 104 97
303.113 -832.45 2788 127 122 123
306.578 -833.943 2793 157 145 133
309.609 -834.241 2794 163 170 143
312.867 -835.137 2797 169 166 145
316.356 -836.63 2802 168 164 148
319.97 -838.422 2808 167 164 147
323.827 -840.81 2816 166 162 147
327.7 -843.199 2824 165 163 147
331.59 -845.588 2832 166 164 146
335.497 -847.976 2840 167 164 147
339.301 -850.066 2847 167 164 148
342.879 -851.559 2852 167 164 148
346.711 -853.649 2859 167 164 148
350.068 -854.545 2862 166 164 147
353.801 -856.337 2868 167 164 147
357.173 -857.232 2871 167 164 147
360.552 -858.128 2874 168 163 148
364.064 -859.322 2878 168 163 147
367.456 -860.218 2881 167 163 147
371.369 -862.308 2888 166 162 146
375.167 -864.1 2894 166 161 146
378.716 -865.294 2898 165 162 146
382.274 -866.488 2902 165 162 147
385.84 -867.683 2906 165 162 147
389.414 -868.877 2910 165 162 148
393.132 -870.37 2915 165 163 147
396.588 -871.266 2918 164 164 147
400.324 -872.759 2923 163 161 143
404.761 -875.744 2933 158 159 139
408.663 -877.536 2939 152 146 128
412.997 -880.223 2948 138 136 118
417.068 -882.313 2955 123 119 107
420.727 -883.508 2959 114 107 96
424.538 -885.001 2964 105 104 90
427.782 -885.299 2965 108 102 83
431.318 -886.195 2968 111 103 85
434.422 -886.195 2968 110 105 86
437.526 -886.195 2968 109 104 86
440.778 -886.493 2969 108 103 86
443.883 -886.493 2969 107 103 85
447.44 -887.389 2972 108 104 84
450.548 -887.389 2972 108 103 84
453.809 -887.688 2973 108 102 84
457.071 -887.986 2974 108 102 84
461.265 -890.076 2981 107 100 84
465.005 -891.271 2985 105 101 88
467.813 -890.674 2983 109 100 92
470.301 -889.479 2979 113 108 90
473.258 -889.181 2978 117 115 88
476.372 -889.181 2978 120 112 87
479.486 -889.181 2978 111 110 87
482.601 -889.181 2978 102 96 81
485.878 -889.479 2979 92 84 76
488.501 -888.584 2976 82 82 70
490.787 -887.091 2971 78 73 65
492.564 -884.702 2963 74 72 64
494.157 -882.015 2954 74 74 63
495.227 -878.432 2942 74 74 64
496.271 -874.849 2930 75 74 65
497.631 -871.863 2920 75 74 65
499.999 -870.669 2916 75 74 66
501.84 -868.578 2909 75 75 66
502.453 -864.398 2895 75 75 67
505.131 -863.801 2893 75 75 67
-194.849 -738.788 2483 81 78 67
-192.253 -738.788 2483 70 72 65
-189.503 -738.193 2481 60 60 60
-186.909 -738.193 2481 46 47 54
-184.314 -738.193 2481 32 46 49
-181.793 -738.49 2482 45 50 43
-179.053 -737.895 2480 59 48 31
-176.175 -736.705 2476 46 33 19
-173.024 -734.325 2468 34 26 11
-169.891 -731.944 2460 17 8 3
-166.638 -728.969 2450 0 0 2
-163.406 -725.994 2440 1 1 0
-160.591 -724.803 2436 1 1 3
-157.849 -723.911 2433 1 3 6
-155.177 -723.316 2431 0 7 27
-152.572 -723.018 2430 0 22 48
-149.969 -722.721 2429 0 21 29
-147.307 -722.126 2427 0 12 10
-144.65 -721.53 2425 0 1 6
-142.055 -721.233 2424 0 1 1
-139.29 -720.043 2420 0 0 1
-136.307 -717.662 2412 0 1 1
-133.452 -715.877 2406 1 1 1
-130.555 -713.794 2399 0 1 0
-127.672 -711.712 2392 0 0 18
-125.014 -710.819 2389 5 18 36
-122.413 -710.224 2387 10 50 53
-119.816 -709.629 2385 10 55 70
-117.273 -709.331 2384 11 53 66
-114.635 -708.439 2381 9 49 61
-111.957 -707.249 2377 8 46 59
-109.379 -706.654 2375 8 46 56
-106.895 -706.654 2375 8 45 59
-104.323 -706.058 2373 9 46 61
-101.713 -705.166 2370 11 50 64
-99.0253 -703.678 2365 10 53 67
-96.4704 -703.083 2363 9 55 67
-93.9196 -702.488 2361 7 51 67
-91.4505 -702.488 2361 6 50 59
-88.9815 -702.488 2361 4 45 51
-86.5124 -702.488 2361 3 40 45
-83.7941 -700.405 2354 2 35 39
-81.3324 -700.405 2354 1 29 36
-78.8706 -700.405 2354 1 27 32
-76.4413 -700.703 2355 0 23 28
-74.544 -706.058 2373 0 20 24
-72.1534 -706.951 2376 0 17 22
-69.698 -707.249 2377 0 15 19
-67.1839 -706.951 2376 0 13 18
-64.6991 -706.951 2376 0 12 16
-62.2144 -706.951 2376 0 11 15
-59.7547 -707.249 2377 0 11 13
-57.293 -707.546 2378 0 8 17
-54.8062 -707.546 2378 0 15 20
-52.2973 -707.249 2377 0 21 31
-49.8115 -707.249 2377 0 28 41
-47.3257 -707.249 2377 0 34 43
-44.8587 -707.546 2378 0 32 45
-42.3719 -707.546 2378 1 33 43
-39.8683 -707.249 2377 1 25 40
-37.3824 -707.249 2377 2 19 50
-34.8966 -707.249 2377 6 15 59
-32.3972 -706.951 2376 11 6 32
-29.9124 -706.951 2376 16 11 4
-27.4277 -706.951 2376 22 15 9
-24.9429 -706.951 2376 18 15 14
-22.477 -707.546 2378 15 14 20
-19.9902 -707.546 2378 18 23 25
-17.5107 -707.844 2379 22 36 59
-15.0354 -708.439 2381 40 59 92
-12.5507 -708.736 2382 58 75 73
-10.0723 -709.629 2385 41 50 53
-7.59084 -710.819 2389 24 27 34
-5.10101 -712.009 2393 14 16 15
-2.60607 -714.092 2400 5 14 19
-0.0963235 -714.985 2403 7 19 23
2.41869 -715.58 2405 10 28 33
4.93994 -716.472 2408 17 39 43
7.46126 -716.77 2409 24 44 42
9.98468 -717.067 2410 32 43 41
12.505 -717.067 2410 39 47 48
15.0253 -717.067 2410 51 58 55
17.582 -718.555 2415 63 63 57
20.1243 -719.15 2417 64 64 59
22.6519 -719.15 2417 66 65 60
25.1795 -719.15 2417 66 64 60
27.4664 -712.902 2396 65 63 59
29.9721 -712.902 2396 65 64 58
163.696 -817.635 2748 64 62 56
166.57 -817.635 2748 64 62 55
169.444 -817.635 2748 65 62 56
172.317 -817.635 2748 65 63 57
175.574 -819.421 2754 65 63 58
178.907 -821.503 2761 65 64 59
182.19 -823.289 2767 65 67 60
185.284 -824.181 2770 65 65 61
188.317 -824.776 2772 64 64 60
191.423 -825.669 2775 63 63 58
194.675 -827.157 2780 63 61 56
197.866 -828.347 2784 62 61 53
200.994 -829.239 2787 61 60 53
203.909 -829.239 2787 60 59 53
207.046 -830.132 2790 58 58 52
210.415 -831.917 2796 57 56 50
213.416 -832.215 2797 56 53 50
216.031 -831.025 2793 55 53 49
218.795 -830.43 2791 55 53 49
221.555 -829.834 2789 55 54 49
224.391 -829.537 2788 56 54 50
227.225 -829.239 2787 56 56 50
230.14 -829.239 2787 57 57 50
232.887 -828.644 2785 57 57 49
235.8 -828.644 2785 57 57 50
238.712 -828.644 2785 58 58 50
241.625 -828.644 2785 58 59 51
244.625 -828.942 2786 58 59 51
247.45 -828.644 2785 58 58 51
250.272 -828.347 2784 57 58 51
253.184 -828.347 2784 56 58 51
255.911 -827.752 2782 56 57 50
258.542 -826.859 2779 56 56 50
261.166 -825.966 2776 56 56 50
263.593 -824.479 2771 56 56 50
265.914 -822.693 2765 56 57 50
268.805 -822.693 2765 57 58 51
271.697 -822.693 2765 58 59 52
274.589 -822.693 2765 59 59 53
277.58 -822.991 2766 58 58 53
280.676 -823.586 2768 57 58 51
283.98 -824.776 2772 55 56 48
287.19 -825.669 2775 53 55 45
290.301 -826.264 2777 52 51 41
293.627 -827.454 2781 52 47 44
296.855 -828.347 2784 62 61 46
299.767 -828.347 2784 72 65 71
302.787 -828.644 2785 99 90 95
306.029 -829.537 2788 127 117 115
309.166 -830.132 2790 141 142 134
312.308 -830.727 2792 156 165 141
315.679 -831.917 2796 160 164 148
319.287 -833.702 2802 165 166 148
322.907 -835.488 2808 166 165 148
327.004 -838.463 2818 167 164 147
330.888 -840.843 2826 167 164 146
334.788 -843.224 2834 168 163 147
338.705 -845.604 2842 167 163 148
342.278 -847.092 2847 167 163 148
345.862 -848.579 2852 166 163 147
349.701 -850.662 2859 166 163 148
353.184 -851.852 2863 166 164 148
356.676 -853.042 2867 167 164 149
360.05 -853.935 2870 167 164 149
363.558 -855.125 2874 168 163 149
367.201 -856.613 2879 167 162 148
371.112 -858.696 2886 166 161 147
374.778 -860.183 2891 165 161 146
378.194 -861.076 2894 165 162 146
382.011 -862.861 2900 165 162 146
385.574 -864.051 2904 165 162 147
389.147 -865.242 2908 165 162 147
392.862 -866.729 2913 165 162 147
396.18 -867.324 2915 164 163 147
399.913 -868.812 2920 164 165 148
404.209 -871.49 2929 161 162 148
408.246 -873.573 2936 159 160 146
412.437 -875.953 2944 149 147 143
416.503 -878.036 2951 140 134 125
420.727 -880.416 2959 128 120 106
424.681 -882.201 2965 116 105 94
428.214 -883.094 2968 113 103 81
431.609 -883.689 2970 110 100 82
435.154 -884.581 2973 108 102 83
438.263 -884.581 2973 107 104 86
441.372 -884.581 2973 108 103 88
444.631 -884.879 2974 110 103 87
447.891 -885.177 2975 109 103 85
451.154 -885.474 2976 108 103 85
455.03 -886.962 2981 108 102 85
458.608 -887.854 2984 109 103 86
461.884 -888.152 2985 108 102 86
464.538 -887.259 2982 107 101 85
467.186 -886.367 2979 108 101 84
469.986 -885.772 2977 110 101 84
472.94 -885.474 2976 114 108 83
476.052 -885.474 2976 118 115 89
479.164 -885.474 2976 118 113 94
482.277 -885.474 2976 119 111 89
485.063 -884.879 2974 107 101 83
488.173 -884.879 2974 95 95 75
490.622 -883.689 2970 86 84 67
492.564 -881.606 2963 77 67 65
494.157 -878.928 2954 75 70 62
495.563 -875.953 2944 73 73 63
497.965 -874.763 2940 74 73 64
499.335 -871.787 2930 75 74 65
500.513 -868.514 2919 75 74 66
501.84 -865.539 2909 76 75 67
502.453 -861.373 2895 75 75 67
505.131 -860.778 2893 75 74 67
-196.333 -732.043 2469 81 78 69
-194.692 -735.6 2481 81 77 66
-192.098 -735.6 2481 71 75 64
-189.503 -735.6 2481 60 59 57
-186.909 -735.6 2481 45 41 50
-184.314 -735.6 2481 30 43 44
-181.793 -735.897 2482 43 56 39
-179.053 -735.304 2480 56 40 29
-176.317 -734.711 2478 45 23 19
-173.024 -731.746 2468 33 15 10
-169.891 -729.374 2460 17 3 2
-166.57 -726.113 2449 0 1 1
-163.339 -723.148 2439 1 1 0
-160.525 -721.962 2435 1 1 3
-157.719 -720.776 2431 1 2 6
-155.049 -720.183 2429 0 12 28
-152.446 -719.886 2428 0 34 51
-149.845 -719.59 2427 0 26 31
-147.186 -718.997 2425 0 17 12
-144.59 -718.7 2424 0 5 7
-141.938 -718.107 2422 0 1 2
-139.232 -717.218 2419 0 1 1
-136.307 -715.142 2412 1 1 1
-133.452 -713.363 2406 1 1 0
-130.555 -711.288 2399 1 1 0
-127.672 -709.213 2392 0 1 13
-125.014 -708.323 2389 5 1 25
-122.413 -707.73 2387 9 35 48
-119.866 -707.434 2386 10 58 70
-117.322 -707.137 2385 10 52 66
-114.78 -706.841 2384 9 48 61
-112.145 -705.951 2381 7 47 56
-109.379 -704.172 2375 7 47 51
-106.895 -704.172 2375 7 43 52
-104.323 -703.579 2373 9 42 53
-101.713 -702.69 2370 10 46 57
-99.0253 -701.207 2365 9 51 62
-96.4704 -700.614 2363 8 52 63
-93.9196 -700.021 2361 8 52 64
-91.4505 -700.021 2361 7 52 62
-88.793 -698.539 2356 6 54 60
-86.3292 -698.539 2356 5 49 57
-83.7941 -697.946 2354 4 43 55
-81.3324 -697.946 2354 2 38 49
-78.8706 -697.946 2354 1 32 42
-76.4413 -698.242 2355 0 29 35
-74.5754 -703.876 2374 0 24 28
-72.0927 -703.876 2374 0 20 24
-69.698 -704.765 2377 0 16 21
-67.2122 -704.765 2377 0 15 20
-64.7264 -704.765 2377 0 14 18
-62.3453 -705.951 2381 0 13 16
-59.8553 -705.951 2381 0 11 14
-57.3894 -706.248 2382 0 10 14
-54.8753 -705.951 2381 0 9 15
-52.3413 -705.358 2379 0 14 21
-49.8325 -705.062 2378 0 18 27
-47.3456 -705.062 2378 0 23 30
-44.8587 -705.062 2378 0 27 33
-42.3541 -704.765 2377 0 27 34
-39.8683 -704.765 2377 1 30 36
-37.3824 -704.765 2377 2 28 43
-34.882 -704.469 2376 8 33 50
-32.3836 -704.172 2375 13 20 30
-29.8998 -704.172 2375 19 18 11
-27.4161 -704.172 2375 25 19 12
-24.9324 -704.172 2375 20 18 14
-22.4487 -704.172 2375 14 18 17
-19.9734 -704.469 2376 13 13 20
-17.5033 -705.062 2378 11 22 38
-15.0228 -705.358 2379 25 32 56
-12.5454 -705.951 2381 39 37 45
-10.0596 -706.248 2382 23 28 34
-7.57813 -707.137 2385 7 21 29
-5.09248 -708.323 2389 8 14 24
-2.60281 -710.695 2397 8 20 28
-0.0962434 -711.881 2401 10 24 32
2.41869 -713.067 2405 11 33 38
4.93788 -713.66 2407 18 41 44
7.45817 -713.956 2408 24 42 42
9.98468 -714.549 2410 34 41 41
12.505 -714.549 2410 43 52 49
15.0253 -714.549 2410 53 63 57
17.5529 -714.846 2411 62 64 58
20.0743 -714.846 2411 64 64 59
22.5957 -714.846 2411 65 65 59
25.1483 -715.735 2414 65 65 60
27.4664 -710.398 2396 65 64 59
29.9721 -710.398 2396 65 64 58
166.085 -812.392 2740 63 60 54
168.95 -812.392 2740 63 62 56
171.816 -812.392 2740 64 64 58
174.809 -812.985 2742 65 64 58
178.259 -815.654 2751 67 64 59
181.136 -815.654 2751 68 66 59
185.351 -821.584 2771 67 66 59
188.249 -821.584 2771 65 64 59
191.285 -822.177 2773 64 63 58
194.395 -823.066 2776 63 62 56
197.582 -824.252 2780 62 60 54
200.706 -825.141 2783 61 60 53
203.616 -825.141 2783 60 59 52
206.675 -825.734 2785 59 57 51
209.964 -827.217 2790 57 55 49
213.416 -829.292 2797 55 53 49
216.418 -829.589 2798 55 52 48
219.344 -829.589 2798 54 53 49
222.111 -828.996 2796 55 53 49
224.955 -828.699 2795 56 55 50
227.633 -827.81 2792 56 56 50
230.553 -827.81 2792 56 57 50
233.389 -827.513 2791 57 57 50
236.308 -827.513 2791 57 57 50
239.141 -827.217 2790 58 58 51
242.059 -827.217 2790 58 59 51
244.889 -826.92 2789 58 59 52
247.716 -826.624 2788 58 59 51
250.542 -826.327 2787 57 58 51
253.457 -826.327 2787 56 58 50
256.187 -825.734 2785 56 57 50
258.914 -825.141 2783 55 56 50
261.636 -824.549 2781 55 56 50
264.164 -823.363 2777 55 56 50
266.587 -821.88 2772 56 55 50
269.389 -821.584 2771 56 57 50
272.287 -821.584 2771 57 58 51
275.184 -821.584 2771 58 58 52
278.082 -821.584 2771 58 58 53
281.081 -821.88 2772 58 58 52
284.288 -822.77 2775 58 58 50
287.397 -823.363 2777 57 57 48
290.614 -824.252 2780 53 56 46
293.733 -824.845 2782 48 52 45
296.642 -824.845 2782 47 48 44
299.552 -824.845 2782 46 55 56
302.461 -824.845 2782 72 57 69
305.59 -825.438 2784 97 86 89
308.612 -825.734 2785 120 114 110
311.748 -826.327 2787 142 138 121
315.227 -827.81 2792 153 162 133
318.603 -828.996 2796 163 164 140
322.332 -831.071 2803 166 169 148
326.424 -834.036 2813 169 167 148
330.302 -836.408 2821 169 165 148
334.315 -839.077 2830 168 164 148
338.228 -841.449 2838 167 163 148
341.677 -842.635 2842 166 163 147
345.256 -844.117 2847 166 163 147
348.967 -845.896 2853 165 163 147
352.691 -847.675 2859 166 163 148
356.054 -848.564 2862 166 164 148
359.674 -850.047 2867 167 164 149
363.052 -850.936 2870 167 163 148
366.818 -852.715 2876 166 162 148
370.598 -854.494 2882 165 162 147
374.389 -856.273 2888 165 161 146
377.932 -857.459 2892 165 162 146
381.615 -858.942 2897 165 163 146
385.176 -860.128 2901 165 162 146
388.745 -861.314 2905 165 162 147
392.457 -862.796 2910 164 162 146
396.044 -863.982 2914 164 162 146
399.639 -865.168 2918 164 163 146
403.933 -867.837 2927 165 164 147
407.828 -869.616 2933 165 161 147
412.156 -872.284 2942 161 157 147
416.08 -874.063 2948 157 146 136
420.158 -876.138 2955 142 134 125
424.538 -878.807 2964 126 123 112
428.07 -879.696 2967 118 106 99
432.19 -881.772 2974 109 104 92
435.3 -881.772 2974 107 99 85
438.558 -882.068 2975 104 101 85
441.669 -882.068 2975 108 103 86
444.93 -882.365 2976 112 103 86
448.343 -882.958 2978 110 103 86
452.215 -884.44 2983 107 102 85
455.793 -885.33 2986 108 101 84
458.916 -885.33 2986 109 102 85
461.419 -884.144 2982 109 103 86
463.759 -882.661 2977 108 103 86
466.402 -881.772 2974 107 103 85
469.354 -881.475 2973 106 103 85
472.145 -880.882 2971 111 102 84
475.252 -880.882 2971 116 109 86
478.359 -880.882 2971 126 116 89
481.79 -881.475 2973 135 113 91
485.063 -881.772 2974 122 113 94
488.173 -881.772 2974 108 105 87
490.622 -880.586 2970 94 102 79
492.564 -878.51 2963 79 85 73
494.659 -876.731 2957 76 66 66
496.91 -875.249 2952 72 69 65
498.642 -872.877 2944 73 72 64
501.039 -871.691 2940 74 73 65
503.256 -870.208 2935 75 74 66
506.326 -870.208 2935 76 74 67
509.395 -870.208 2935 76 74 68
512.465 -870.208 2935 75 75 68
517.115 -872.877 2944 76 75 68
521.784 -875.545 2953 76 75 68
-196.174 -728.872 2467 80 77 68
-193.986 -730.349 2472 80 78 65
-191.478 -730.645 2473 70 71 62
-189.045 -731.236 2475 61 58 54
-186.607 -731.826 2477 43 42 45
-184.091 -732.122 2478 26 30 40
-181.5 -732.122 2478 32 36 35
-178.98 -732.417 2479 39 33 27
-176.246 -731.826 2477 30 19 18
-172.814 -728.281 2465 22 8 9
-169.891 -726.804 2460 11 3 0
-166.366 -722.668 2446 0 0 0
-163.138 -719.713 2436 1 1 0
-160.327 -718.531 2432 1 1 3
-157.589 -717.645 2429 1 2 6
-154.985 -717.349 2428 1 5 30
-152.32 -716.759 2426 0 24 53
-149.722 -716.463 2425 0 32 33
-147.125 -716.168 2424 0 17 13
-144.471 -715.577 2422 0 0 8
-141.821 -714.986 2420 0 1 2
-139.117 -714.1 2417 1 1 1
-136.25 -712.327 2411 1 1 0
-133.396 -710.554 2405 1 0 0
-130.609 -709.077 2400 0 0 0
-127.779 -707.304 2394 0 0 7
-125.014 -705.827 2389 5 9 14
-122.413 -705.236 2387 9 31 42
-119.866 -704.941 2386 10 44 70
-117.371 -704.941 2386 10 50 66
-114.828 -704.645 2385 9 48 61
-112.286 -704.35 2384 7 46 53
-109.701 -703.759 2382 7 42 45
-107.075 -702.872 2379 7 36 45
-104.455 -701.986 2376 7 38 44
-101.842 -701.1 2373 8 40 50
-99.2346 -700.213 2370 7 45 56
-96.5112 -698.441 2364 7 48 59
-93.9594 -697.85 2362 7 49 61
-91.4505 -697.554 2361 6 50 65
-88.793 -696.077 2356 6 53 68
-86.3292 -696.077 2356 5 58 70
-83.7941 -695.486 2354 5 51 71
-81.3324 -695.486 2354 5 47 62
-78.8706 -695.486 2354 4 42 52
-76.4413 -695.782 2355 3 37 42
-74.5754 -701.395 2374 2 31 31
-72.0927 -701.395 2374 1 23 27
-69.698 -702.282 2377 0 19 23
-67.2122 -702.282 2377 0 16 22
-64.8897 -704.054 2383 0 15 20
-62.4762 -704.941 2386 0 14 17
-59.981 -704.941 2386 0 12 14
-57.4617 -704.645 2385 0 10 12
-54.8984 -703.759 2382 0 9 10
-52.4073 -703.759 2382 0 7 11
-49.8744 -703.168 2380 0 11 12
-47.3456 -702.577 2378 0 12 16
-44.8587 -702.577 2378 0 16 20
-42.3541 -702.282 2377 0 19 26
-39.8683 -702.282 2377 1 23 31
-37.3667 -701.986 2376 1 31 36
-34.8673 -701.691 2375 6 26 41
