# .PCD v0.7 - Point Cloud Data file format
VERSION 0.7
FIELDS x y z
SIZE 4 4 4
TYPE F F F
COUNT 1 1 1
WIDTH 1810
HEIGHT 1
VIEWPOINT -0 -0 -0 1 0 0 0
POINTS 1810
DATA ascii
158.69501 71.691498 2082.1499
159.599 71.867996 2083.8
88.494797 167.047 2296.5901
87.465599 168.041 2298.46
86.436302 169.036 2300.3401
85.406898 170.03101 2302.22
84.377403 171.02699 2304.1001
85.283096 171.185 2305.6899
90.059196 169.661 2306.7
89.997498 170.23599 2308.4299
89.935699 170.812 2310.1599
108.261 163.388 2309.05
111.103 162.69299 2310.3101
114.913 161.57401 2311.4099
117.756 160.875 2312.6599
119.631 160.59599 2314.05
123.442 159.47 2315.1299
-22.997801 118.832 2003.33
-18.257299 117.628 2005.3101
-9.6707401 114.962 2007.37
-5.89079 114.115 2009.3101
-3.0720301 113.631 2011.21
-0.25305799 113.145 2013.11
2.5661299 112.657 2015.01
5.38553 112.167 2016.89
9.16675 111.309 2018.79
13.9099 110.08 2020.7
15.7684 109.951 2022.55
18.588699 109.452 2024.41
24.2945 107.848 2026.3101
30.0007 106.239 2028.1899
34.745499 104.996 2030.05
39.4907 103.749 2031.9
43.2743 102.868 2033.74
46.096298 102.354 2035.55
50.842499 101.098 2037.38
57.513 99.098099 2039.2
72.8423 93.759003 2041.0601
76.627899 92.859901 2042.84
80.413803 91.958099 2044.61
81.313499 92.168198 2046.36
85.0998 91.2621 2048.1201
88.886398 90.353401 2049.8701
92.673302 89.442101 2051.6101
98.385002 87.782402 2053.3401
104.097 86.118698 2055.05
108.847 84.8246 2056.76
112.636 83.9011 2058.47
114.499 83.723198 2060.1699
119.25 82.420601 2061.8601
125.927 80.364899 2063.51
127.791 80.180496 2065.2
133.506 78.492798 2066.8501
143.07201 75.297897 2068.4399
146.862 74.353203 2070.0801
150.653 73.405899 2071.71
152.51801 73.209602 2073.3601
154.384 73.012001 2075.01
155.287 73.190598 2076.6699
156.19 73.368401 2078.3201
157.09399 73.545601 2079.98
157.99699 73.722198 2081.6299
90.7658 167.35001 2294.02
89.736801 168.34399 2295.8899
88.707802 169.339 2297.76
88.646004 169.914 2299.49
87.616798 170.91 2301.3701
86.587601 171.907 2303.25
85.558296 172.90401 2305.1299
90.333702 171.375 2306.1399
90.271896 171.951 2307.8701
98.9179 168.731 2308.26
106.597 165.927 2308.79
108.471 165.65199 2310.2
113.248 164.108 2311.1599
117.058 162.98399 2312.26
119.9 162.28 2313.5
123.711 161.14999 2314.5901
-20.846901 120.56 2004.64
-13.2232 118.252 2006.6801
-7.52143 116.671 2008.67
-4.7032099 116.184 2010.58
-1.88478 115.696 2012.48
1.89525 114.838 2014.39
3.7527201 114.713 2016.27
6.5717802 114.219 2018.15
12.2755 112.619 2020.08
14.1336 112.488 2021.9301
17.915001 111.618 2023.8101
21.6966 110.746 2025.6801
27.4018 109.133 2027.5699
33.107399 107.516 2029.45
38.8134 105.895 2031.3101
42.596298 105.01 2033.15
46.379601 104.123 2034.97
50.163101 103.233 2036.79
55.870602 101.598 2038.62
71.197403 96.243698 2040.48
76.906097 94.597603 2042.27
80.691399 93.691803 2044.04
81.590897 93.901001 2045.8
84.414597 93.3638 2047.55
88.2005 92.4515 2049.3
91.986702 91.536598 2051.05
97.697502 89.8713 2052.78
103.409 88.202103 2054.5
107.196 87.277901 2056.21
110.983 86.351097 2057.9199
112.847 86.171898 2059.6299
119.522 84.114098 2061.3
124.272 82.8032 2062.98
128.061 81.865196 2064.6499
133.77499 80.171501 2066.3
140.451 78.097198 2067.9199
145.20399 76.772499 2069.5601
148.994 75.821899 2071.1899
150.85899 75.624298 2072.8401
152.724 75.4254 2074.49
154.59 75.225197 2076.1399
155.493 75.402397 2077.8
156.396 75.578903 2079.45
157.299 75.754799 2081.1101
91.040298 169.064 2293.46
90.011497 170.05901 2295.3301
89.949699 170.634 2297.0601
89.887901 171.21001 2298.79
88.859001 172.20599 2300.6699
87.829903 173.203 2302.55
87.768097 173.77901 2304.28
87.7062 174.355 2306.01
85.709702 175.776 2308.04
99.191002 170.436 2307.71
102.999 169.317 2308.8301
106.808 168.194 2309.95
108.681 167.91701 2311.3601
113.458 166.366 2312.3201
117.267 165.23599 2313.4099
120.109 164.528 2314.6499
-19.6576 122.649 2005.92
-10.1126 119.596 2008
-6.3337698 118.741 2009.9399
-2.5546899 117.882 2011.86
-0.69778103 117.757 2013.74
2.1205299 117.263 2015.64
6.86166 116.029 2017.5601
9.6804705 115.53 2019.4399
13.4609 114.659 2021.33
16.2801 114.156 2023.2
21.022499 112.911 2025.08
25.7652 111.662 2026.96
31.469801 110.04 2028.84
37.174801 108.413 2030.71
41.918701 107.154 2032.5601
46.662899 105.892 2034.4
50.445801 104.998 2036.22
56.152302 103.357 2038.04
66.667999 99.8498 2039.88
77.184402 96.335197 2041.71
80.969002 95.425598 2043.48
80.906502 96.007301 2045.23
84.691597 95.093697 2046.99
87.514999 94.551598 2048.74
91.300499 93.633003 2050.48
96.048302 92.336998 2052.22
100.797 91.037697 2053.95
105.545 89.7351 2055.6599
110.294 88.429199 2057.3701
113.119 87.872299 2059.0701
113.058 88.442802 2060.79
118.77 86.752502 2062.47
127.369 83.926903 2064.1101
129.23199 83.737602 2065.79
139.757 80.146896 2067.3899
144.508 78.817596 2069.02
148.298 77.863403 2070.6599
150.16299 77.6642 2072.3201
152.028 77.4636 2073.97
153.89301 77.261703 2075.6101
154.795 77.438301 2077.27
155.698 77.614197 2078.9299
156.601 77.789398 2080.5901
91.314796 170.778 2292.8999
90.286102 171.774 2294.77
90.224297 172.349 2296.5
90.162498 172.925 2298.23
90.1008 173.5 2299.97
88.104897 174.92 2301.99
88.042999 175.496 2303.72
87.981201 176.073 2305.45
85.017799 177.918 2307.6299
99.463997 172.142 2307.1499
101.337 171.866 2308.5801
102.243 172.013 2310.1499
104.116 171.735 2311.5601
108.892 170.181 2312.52
115.603 167.77299 2313.1699
-15.5857 123.632 2007.27
-7.9636898 121.301 2009.3
-5.1463399 120.808 2011.21
-2.3287899 120.313 2013.11
-0.47213 120.186 2014.99
2.34582 119.687 2016.88
7.08634 118.447 2018.8
11.8272 117.203 2020.71
14.6459 116.697 2022.58
18.426201 115.819 2024.45
24.129299 114.195 2026.35
30.794201 112.196 2028.25
37.459702 110.192 2030.13
42.202702 108.928 2031.98
45.984699 108.033 2033.8101
50.728401 106.763 2035.64
55.4725 105.49 2037.46
65.986397 101.972 2039.3101
75.539398 98.820602 2041.13
80.285004 97.533501 2042.91
81.184097 97.740997 2044.66
84.006798 97.198303 2046.42
87.791496 96.278397 2048.1799
91.576401 95.356003 2049.9199
95.361603 94.430801 2051.6599
100.109 93.126999 2053.3899
103.895 92.196198 2055.1101
110.567 90.1325 2056.8101
113.391 89.572701 2058.52
113.33 90.143204 2060.24
118.079 88.824799 2061.9199
122.828 87.503098 2063.6001
127.578 86.178101 2065.26
134.252 84.0923 2066.8999
139.964 82.380997 2068.53
143.75301 81.4245 2070.1699
149.466 79.706001 2071.78
151.33099 79.503799 2073.4399
153.196 79.300201 2075.0901
155.061 79.095398 2076.73
155.00101 79.651398 2078.4099
91.589203 172.492 2292.3401
90.560699 173.489 2294.21
90.498901 174.065 2295.9399
90.437202 174.64 2297.6699
90.375397 175.215 2299.4099
88.379799 176.63699 2301.4199
88.318001 177.213 2303.1599
88.256104 177.78999 2304.8899
83.3592 180.487 2307.3601
98.769997 174.271 2306.74
99.675598 174.41901 2308.3201
101.548 174.14101 2309.74
103.421 173.86099 2311.1599
104.327 174.006 2312.73
115.873 169.46201 2312.6201
-10.5538 124.235 2008.63
-6.7761798 123.371 2010.5699
-4.9200802 123.243 2012.45
-2.1029 122.744 2014.35
-0.246479 122.614 2016.23
4.4931502 121.37 2018.15
7.3110099 120.865 2020.03
13.0124 119.243 2021.96
15.8308 118.733 2023.8199
20.571699 117.476 2025.71
27.235399 115.472 2027.61
35.821999 112.717 2029.53
41.525501 111.075 2031.39
45.306801 110.177 2033.22
50.049702 108.902 2035.05
55.754398 107.25 2036.88
61.4594 105.594 2038.7
71.010696 102.434 2040.53
75.755302 101.144 2042.3199
78.577202 100.601 2044.09
83.322403 99.304901 2045.85
87.1064 98.381401 2047.61
91.852303 97.078903 2049.3601
95.636902 96.149902 2051.1001
99.4217 95.218201 2052.8301
103.207 94.283897 2054.55
106.992 93.346901 2056.27
109.816 92.7854 2057.98
112.64 92.221901 2059.6899
118.35 90.520203 2061.3701
122.137 89.572701 2063.05
126.886 88.243103 2064.72
131.63499 86.910301 2066.3799
136.384 85.574097 2068.02
140.172 84.615097 2069.6699
143.96001 83.653397 2071.3201
145.82401 83.451202 2072.97
147.689 83.247704 2074.6299
149.55299 83.0429 2076.28
91.863701 174.20599 2291.78
90.835297 175.20399 2293.6499
90.773598 175.78 2295.3799
90.7118 176.355 2297.1101
90.650002 176.92999 2298.8501
88.654701 178.354 2300.8601
88.592903 178.931 2302.6001
86.597397 180.356 2304.6201
86.5355 180.933 2306.3601
89.374298 180.233 2307.6599
89.3125 180.80901 2309.3899
99.887299 176.696 2309.48
99.825897 177.269 2311.2
104.6 175.70599 2312.1699
-8.4053898 125.937 2009.9301
-6.5496802 125.808 2011.8199
-4.69383 125.678 2013.7
-1.877 125.175 2015.6
0.94003701 124.67 2017.49
7.6008902 122.675 2019.4399
10.4185 122.165 2021.3199
14.1973 121.28 2023.21
18.937401 120.019 2025.1
25.599899 118.009 2027
30.3407 116.741 2028.87
36.043098 115.095 2030.75
40.784698 113.82 2032.59
45.5266 112.542 2034.4301
50.268902 111.261 2036.26
55.0116 109.976 2038.08
63.5998 107.185 2039.91
72.188599 104.388 2041.73
75.971199 103.467 2043.51
81.676903 101.79 2045.28
86.4216 100.486 2047.04
90.2052 99.556702 2048.79
93.989098 98.624397 2050.54
97.7733 97.689499 2052.27
101.558 96.7519 2054
106.304 95.432899 2055.71
110.089 94.4897 2057.4199
112.913 93.923302 2059.1299
117.66 92.595398 2060.8201
122.408 91.264198 2062.5
125.232 90.690498 2064.1799
129.98 89.353401 2065.8501
132.80499 88.7752 2067.52
136.592 87.813499 2069.1699
138.45599 87.612602 2070.8401
91.1717 176.34399 2291.3601
91.110001 176.91901 2293.0901
91.048203 177.495 2294.8201
90.986397 178.07001 2296.55
88.991501 179.495 2298.5701
86.996498 180.922 2300.5901
86.934601 181.49899 2302.3301
86.872704 182.075 2304.0601
86.810699 182.65199 2305.8
89.649002 181.94901 2307.0901
89.587196 182.52499 2308.8301
89.525398 183.101 2310.5601
90.430496 183.24899 2312.1499
104.872 177.407 2311.6201
-7.21804 128.005 2011.2
-5.3625398 127.873 2013.08
-2.5462201 127.368 2014.98
-0.69039702 127.233 2016.86
4.0478001 125.978 2018.78
8.7863398 124.719 2020.7
11.6036 124.205 2022.5699
15.382 123.315 2024.45
18.199699 122.796 2026.3101
24.8613 120.776 2028.22
30.5625 119.127 2030.1
36.264099 117.474 2031.96
41.966099 115.817 2033.8199
45.746399 114.908 2035.64
50.488098 113.62 2037.47
59.074699 110.821 2039.3101
65.739601 108.771 2041.12
72.4049 106.717 2042.92
77.1483 105.413 2044.7
83.814598 103.35 2046.47
88.5588 102.038 2048.23
92.342003 101.103 2049.97
96.125504 100.165 2051.71
99.909203 99.223801 2053.4399
104.655 97.900597 2055.1599
108.439 96.954102 2056.8799
111.262 96.385399 2058.5901
116.97 94.672501 2060.27
120.755 93.717796 2061.96
124.541 92.760498 2063.6399
128.327 91.800499 2065.3101
131.151 91.220001 2066.99
133.01401 91.019798 2068.6699
90.480103 178.483 2290.9299
88.485703 179.909 2292.9399
87.457497 180.911 2294.8201
87.395599 181.487 2296.5601
87.333603 182.064 2298.29
85.338898 183.493 2300.3101
87.209801 183.218 2301.76
87.147903 183.79401 2303.5
87.085999 184.371 2305.24
89.923798 183.66499 2306.53
89.862 184.241 2308.27
89.800201 184.817 2310
-6.9914198 130.444 2012.45
-4.1756401 129.936 2014.35
-0.39910299 129.052 2016.27
4.3383002 127.792 2018.1899
7.15483 127.278 2020.0699
9.9715595 126.761 2021.95
14.7099 125.492 2023.85
18.487801 124.595 2025.73
22.2661 123.696 2027.59
27.9662 122.042 2029.48
33.666698 120.384 2031.35
37.445999 119.475 2033.1899
42.186401 118.187 2035.03
45.966202 117.273 2036.85
50.707298 115.978 2038.6801
59.292801 113.168 2040.51
65.956802 111.109 2042.3199
69.738098 110.181 2044.1
78.325203 107.356 2045.89
84.029602 105.662 2047.66
88.773102 104.345 2049.4099
92.555801 103.404 2051.1499
96.338799 102.46 2052.8899
115.503 95.422897 2054.5801
115.442 95.992996 2056.3
115.38 96.563202 2058.01
116.281 96.751701 2059.72
119.104 96.1754 2061.4199
124.811 94.450104 2063.0901
127.635 93.868797 2064.77
130.459 93.285599 2066.45
131.36 93.467201 2068.1399
90.816704 179.62399 2288.6399
88.822701 181.05099 2290.6499
87.794601 182.05299 2292.52
86.766602 183.056 2294.3999
85.738403 184.06 2296.27
84.710197 185.064 2298.1499
81.749298 186.923 2300.3201
83.619797 186.647 2301.78
85.490402 186.369 2303.23
85.428497 186.94701 2304.97
85.366501 187.524 2306.71
101.612 181.955 2309.3899
-3.8837199 131.759 2013.76
-0.107808 130.87199 2015.67
2.7079501 130.35699 2017.5601
6.4843998 129.464 2019.47
8.3401203 129.321 2021.33
11.1565 128.8 2023.2
16.854799 127.148 2025.11
22.5536 125.492 2027.01
24.4102 125.34 2028.85
30.109699 123.677 2030.72
33.8881 122.766 2032.5699
37.666901 121.852 2034.41
42.4067 120.558 2036.24
46.186001 119.638 2038.0699
50.926498 118.337 2039.88
55.667301 117.033 2041.6899
63.291302 114.586 2043.5
68.993896 112.894 2045.29
78.540901 109.676 2047.08
84.244499 107.975 2048.8401
89.948502 106.27 2050.5901
93.730797 105.324 2052.3301
115.775 97.122299 2054.02
115.714 97.692398 2055.74
115.652 98.262604 2057.46
117.514 98.067398 2059.1599
122.259 96.721802 2060.8501
125.082 96.139603 2062.54
127.905 95.555496 2064.22
130.729 94.969299 2065.8999
131.629 95.149803 2067.5901
89.159599 182.192 2288.3501
87.165901 183.62199 2290.3601
85.171898 185.05299 2292.3701
84.143898 186.05701 2294.25
82.149696 187.491 2296.27
81.121498 188.49699 2298.1599
81.059402 189.076 2299.8999
81.963402 189.22701 2301.5
85.765999 188.09 2302.6699
88.602699 187.38 2303.97
91.439598 186.668 2305.27
91.377899 187.243 2307
101.946 183.08701 2307.1101
101.884 183.659 2308.8301
0.183487 132.69099 2015.08
4.9193201 131.42101 2017.01
4.8539801 132.03 2018.84
7.6696601 131.508 2020.72
10.4855 130.985 2022.6
12.3412 130.83701 2024.45
17.0784 129.554 2026.34
22.7764 127.89 2028.24
29.4354 125.844 2030.13
32.252602 125.308 2031.97
36.030701 124.391 2033.8101
39.808998 123.471 2035.64
39.744999 124.067 2037.4399
43.523701 123.144 2039.26
49.224201 121.457 2041.08
52.042801 120.908 2042.88
60.626499 118.071 2044.6899
69.2108 115.228 2046.49
78.7565 111.997 2048.27
85.420303 109.906 2050.03
102.655 103.604 2051.76
116.047 98.821602 2053.47
120.791 97.4767 2055.1699
120.73 98.045197 2056.8799
120.669 98.6138 2058.6001
123.491 98.030296 2060.29
126.314 97.444801 2061.98
129.136 96.857399 2063.6599
130.998 96.653 2065.3501
132.86 96.447197 2067.03
134.722 96.240097 2068.71
92.393799 182.05299 2285.6499
87.503197 184.765 2288.0601
85.509697 186.19701 2290.0701
84.481796 187.202 2291.95
82.488098 188.63699 2293.97
81.459999 189.644 2295.8501
80.4319 190.65199 2297.73
80.369698 191.231 2299.48
82.239601 190.952 2300.9399
86.041603 189.811 2302.1001
90.809998 188.23801 2303.1201
91.714302 188.383 2304.71
99.381699 185.51199 2305.27
102.219 184.79201 2306.55
6.16995 132.858 2016.4301
6.10463 133.466 2018.27
6.9995098 133.69701 2020.11
8.8546801 133.549 2021.98
10.71 133.39999 2023.83
13.5257 132.87 2025.7
17.302 131.96001 2027.5699
22.9993 130.28799 2029.46
28.697001 128.612 2031.34
28.6325 129.213 2033.15
32.409901 128.29201 2034.99
35.2271 127.749 2036.8199
37.084 127.585 2038.63
38.941002 127.42 2040.4399
45.6012 125.345 2042.27
52.261902 123.265 2044.09
60.844398 120.416 2045.89
69.427597 117.562 2047.6801
78.011398 114.701 2049.45
102.929 105.318 2051.2
116.319 100.521 2052.9099
121.062 99.171204 2054.6201
121.001 99.7397 2056.3301
120.94 100.308 2058.04
123.762 99.721802 2059.74
127.545 98.7481 2061.4199
130.367 98.157402 2063.1101
135.112 96.792702 2064.77
136.974 96.583702 2066.4399
136.91299 97.146599 2068.1399
140.698 96.161697 2069.79
141.599 96.335999 2071.47
91.702797 184.196 2285.23
87.778603 186.485 2287.5
85.7854 187.91901 2289.51
83.792099 189.354 2291.52
81.798599 190.791 2293.54
80.770699 191.799 2295.4199
79.742699 192.80901 2297.3101
79.680496 193.388 2299.05
82.5158 192.677 2300.3701
86.3172 191.532 2301.54
91.084702 189.95399 2302.5601
96.818604 187.94099 2303.4199
99.654999 187.21899 2304.71
102.492 186.496 2305.99
6.39498 135.28 2017.67
6.32967 135.888 2019.5
7.2244301 136.118 2021.35
9.0793505 135.967 2023.21
10.9344 135.815 2025.0699
13.7498 135.282 2026.9301
16.565399 134.746 2028.79
18.4209 134.59 2030.64
21.2369 134.05099 2032.49
24.053101 133.50999 2034.33
26.869499 132.967 2036.16
28.7257 132.804 2037.99
32.502899 131.875 2039.8199
40.1222 129.41299 2041.66
45.821098 127.711 2043.48
52.480999 125.623 2045.29
61.062401 122.762 2047.1
73.4869 118.359 2048.8799
103.204 107.031 2050.6399
116.591 102.22 2052.3601
121.333 100.866 2054.0701
121.272 101.434 2055.78
121.211 102.003 2057.49
124.994 101.027 2059.1799
129.737 99.663101 2060.8601
135.44099 97.908897 2062.52
135.381 98.472504 2064.22
137.242 98.261497 2065.8999
140.065 97.661499 2067.5601
140.966 97.835503 2069.24
141.866 98.008904 2070.9199
91.012199 186.341 2284.8
87.0886 188.634 2287.0701
85.095703 190.07001 2289.0801
83.1026 191.508 2291.1001
81.109398 192.94701 2293.1201
80.081596 193.957 2295
79.053703 194.967 2296.8899
81.826302 194.83299 2299.95
91.359497 191.67 2302
99.024101 188.786 2302.5701
99.928398 188.927 2304.1499
5.6601601 138.08099 2018.9
6.5547199 138.31 2020.74
7.4493499 138.53799 2022.59
9.3040199 138.38499 2024.45
10.1988 138.61099 2026.29
12.0538 138.455 2028.14
15.829 137.535 2030.02
17.684299 137.37601 2031.86
19.5397 137.216 2033.7
21.3953 137.05499 2035.53
24.211201 136.509 2037.37
27.0273 135.961 2039.2
32.724602 134.25999 2041.04
40.342899 131.787 2042.88
47.0014 129.694 2044.7
52.700001 127.98 2046.5
64.161697 123.953 2048.3
99.636002 110.285 2050.0801
114.942 104.691 2051.8101
121.605 102.56 2053.51
121.544 103.129 2055.23
121.483 103.697 2056.9399
127.186 101.944 2058.6201
133.85001 99.799599 2060.29
135.71001 99.5886 2061.97
136.61099 99.764297 2063.6599
138.472 99.551003 2065.3401
140.33299 99.336403 2067.01
142.194 99.120499 2068.6899
143.095 99.292503 2070.3601
144.957 99.074203 2072.03
92.314201 187.05299 2282.3701
90.321899 188.48801 2284.3701
86.398903 190.785 2286.6499
84.406197 192.224 2288.6599
82.413399 193.664 2290.6699
80.420502 195.105 2292.6899
79.392799 196.116 2294.5701
78.365097 197.12801 2296.46
80.233803 196.84399 2297.9299
97.427902 190.78799 2300.5801
99.2976 190.495 2302.02
100.202 190.634 2303.6001
4.92557 140.88499 2020.12
6.7797599 140.73199 2021.98
7.6742702 140.95799 2023.83
8.5688496 141.18401 2025.67
10.4234 141.028 2027.53
12.2781 140.869 2029.38
14.1329 140.71001 2031.23
15.9879 140.549 2033.0699
17.843 140.38699 2034.91
19.6982 140.22301 2036.74
21.5536 140.058 2038.58
26.289499 138.73801 2040.42
32.946201 136.645 2042.26
41.523701 133.77699 2044.1
48.1814 131.673 2045.91
57.720501 128.408 2047.72
94.149101 114.32 2049.52
116.175 106.006 2051.25
119.955 105.028 2052.96
119.894 105.598 2054.6799
124.635 104.229 2056.3701
129.377 102.857 2058.0601
135.07899 101.093 2059.73
136.94 100.88 2061.4199
137.84 101.054 2063.1101
139.701 100.839 2064.78
141.562 100.622 2066.46
142.46201 100.793 2068.1399
143.36301 100.964 2069.8201
145.224 100.744 2071.48
90.658897 189.63 2282.0801
88.666801 191.06799 2284.0801
85.709503 192.938 2286.22
83.717102 194.379 2288.23
81.724602 195.821 2290.24
79.731903 197.265 2292.26
79.669601 197.845 2294.01
80.572701 197.992 2295.6201
82.441101 197.70599 2297.0801
97.701797 192.498 2300.02
99.571098 192.203 2301.46
100.475 192.341 2303.04
5.1508498 143.31 2021.36
6.0451298 143.536 2023.21
7.8991799 143.379 2025.0699
8.7936401 143.604 2026.91
10.6479 143.444 2028.77
12.5024 143.283 2030.62
14.357 143.121 2032.46
15.2518 143.342 2034.29
17.1066 143.17799 2036.13
18.961599 143.01199 2037.97
21.776699 142.459 2039.8
26.511999 141.132 2041.64
34.127899 138.644 2043.49
45.584599 134.603 2045.33
54.1619 131.716 2047.13
91.544502 117.204 2048.95
116.447 107.706 2050.7
119.267 107.113 2052.4099
119.206 107.682 2054.1299
126.827 105.143 2055.8201
133.48801 102.988 2057.49
135.34801 102.774 2059.1799
137.209 102.559 2060.8701
138.10899 102.732 2062.5601
139.96899 102.514 2064.24
141.83 102.295 2065.9099
143.69099 102.075 2067.5801
143.631 102.636 2069.27
145.492 102.414 2070.9399
147.353 102.191 2072.6001
89.969101 191.77901 2281.6499
87.977303 193.21899 2283.6499
85.985397 194.661 2285.6599
83.993301 196.104 2287.6699
82.001099 197.548 2289.6799
80.973801 198.561 2291.5601
79.946503 199.57401 2293.45
81.814499 199.286 2294.9099
82.717499 199.43201 2296.52
84.585701 199.142 2297.98
91.280403 196.677 2298.73
97.975601 194.20799 2299.46
99.844597 193.911 2300.8999
5.3761401 145.73399 2022.6
6.2702999 145.959 2024.45
8.1240997 145.799 2026.3101
9.9780502 145.638 2028.16
10.8725 145.86 2030
12.7267 145.69701 2031.85
14.581 145.532 2033.7
15.4757 145.752 2035.53
17.330299 145.58501 2037.37
19.185101 145.416 2039.2
21.9998 144.86 2041.03
28.654301 142.752 2042.88
41.068901 138.314 2044.73
54.444401 133.48 2046.5601
63.020802 130.578 2048.3501
116.72 109.406 2050.1399
119.539 108.81 2051.8601
123.318 107.823 2053.5601
128.058 106.443 2055.26
133.758 104.67 2056.9399
135.618 104.454 2058.6399
137.478 104.237 2060.3201
138.377 104.41 2062.01
140.23801 104.19 2063.6899
142.09801 103.969 2065.3701
143.95799 103.747 2067.04
143.89799 104.308 2068.73
145.759 104.084 2070.3899
147.62 103.859 2072.05
149.481 103.632 2073.71
92.235603 192.05701 2279.0901
90.244301 193.498 2281.0901
87.288101 195.373 2283.22
85.296402 196.817 2285.23
84.269501 197.82899 2287.1001
82.277603 199.27499 2289.1201
81.250504 200.28799 2291
81.188202 200.868 2292.74
83.056 200.578 2294.21
86.791901 199.995 2297.1399
91.555397 198.394 2298.1699
94.388901 197.662 2299.47
100.118 195.619 2300.3401
4.6420398 148.543 2023.83
6.49546 148.382 2025.6899
8.34902 148.22 2027.55
10.2027 148.056 2029.4
11.097 148.27699 2031.24
12.951 148.11099 2033.09
13.8455 148.33 2034.92
15.6997 148.162 2036.76
17.554001 147.992 2038.6
19.408501 147.821 2040.4301
22.2229 147.25999 2042.26
38.474201 141.258 2044.14
48.967999 137.578 2045.97
59.462502 133.89 2047.77
115.072 111.886 2049.5801
118.85 110.897 2051.3
123.589 109.516 2053.01
131.20799 106.96 2054.7
134.02699 106.353 2056.3999
135.88699 106.135 2058.0901
137.746 105.916 2059.77
138.646 106.087 2061.46
140.506 105.866 2063.1399
142.366 105.643 2064.8201
144.226 105.419 2066.49
144.166 105.98 2068.1799
146.026 105.754 2069.8501
147.88699 105.526 2071.51
149.748 105.298 2073.1699
92.510597 193.774 2278.53
89.555 195.64999 2280.6599
87.563797 197.095 2282.6599
85.572502 198.541 2284.6599
83.581001 199.98801 2286.6799
82.5541 201.002 2288.55
81.5271 202.01601 2290.4299
81.464897 202.59599 2292.1799
83.332298 202.304 2293.6499
87.067596 201.717 2296.5701
91.830299 200.11099 2297.6101
92.733398 200.25 2299.2
96.531601 199.077 2300.3601
4.8674502 150.96899 2025.0699
6.7206202 150.80499 2026.9301
8.5739403 150.64 2028.79
10.4274 150.474 2030.64
11.3216 150.69299 2032.48
13.1753 150.52499 2034.3199
14.0697 150.743 2036.16
15.9236 150.57201 2038
17.7777 150.399 2039.83
20.591499 149.83701 2041.67
33.9613 144.987 2043.54
47.3321 140.127 2045.38
59.744202 135.649 2047.2
68.318298 132.72501 2048.98
134.297 108.036 2055.8501
136.15601 107.816 2057.54
138.015 107.595 2059.23
138.91499 107.765 2060.9199
140.774 107.542 2062.6001
142.634 107.317 2064.27
143.534 107.485 2065.95
144.43401 107.652 2067.6299
146.29401 107.424 2069.3
148.15401 107.194 2070.96
149.054 107.359 2072.6399
92.847397 194.91499 2276.23
91.821098 195.925 2278.1001
89.830399 197.37 2280.0901
86.875099 199.252 2282.23
85.848503 200.265 2284.1001
83.8573 201.714 2286.1101
82.830597 202.729 2287.99
81.803802 203.744 2289.8701
81.7416 204.32401 2291.6201
83.608704 204.03 2293.0901
87.343399 203.439 2296.01
89.210899 203.14101 2297.47
92.043404 202.40401 2298.78
5.9866099 153.616 2028.16
8.7988596 153.06 2030.03
9.6928301 153.28 2031.87
11.5461 153.11 2033.72
13.3996 152.939 2035.5601
16.212601 152.37601 2037.41
17.107 152.592 2039.24
18.9608 152.41701 2041.0699
36.166199 145.991 2042.96
47.615898 141.89999 2044.8
58.1068 138.19099 2046.62
60.9221 137.60699 2048.3999
133.606 110.111 2055.3
135.465 109.89 2056.99
138.284 109.273 2058.6799
139.183 109.443 2060.3701
141.043 109.217 2062.05
142.90199 108.991 2063.73
143.802 109.158 2065.4099
144.701 109.324 2067.0901
145.601 109.489 2068.77
147.461 109.258 2070.4299
149.321 109.026 2072.0901
151.181 108.792 2073.75
93.184097 196.056 2273.9399
92.158096 197.067 2275.8
90.167702 198.513 2277.8
88.177299 199.961 2279.79
87.150902 200.97501 2281.6699
85.160202 202.425 2283.6699
84.133698 203.44 2285.55
82.1427 204.892 2287.5601
81.115997 205.909 2289.4399
92.318298 204.12199 2298.22
0.45757899 158.37601 2029.33
6.1465101 156.649 2031.23
9.9176197 155.69901 2033.11
11.7707 155.526 2034.95
13.6239 155.35201 2036.8
16.436501 154.786 2038.64
18.290001 154.60899 2040.47
41.248299 145.81799 2042.4
47.899601 143.672 2044.23
58.388901 139.952 2046.04
58.325401 140.543 2047.8199
130.99699 112.976 2054.76
135.73399 111.571 2056.4399
137.593 111.347 2058.1299
139.452 111.121 2059.8201
141.311 110.893 2061.5
142.21001 111.06 2063.1899
143.11 111.226 2064.8701
144.009 111.392 2066.55
145.869 111.16 2068.22
147.728 110.927 2069.8899
149.588 110.693 2071.55
151.448 110.457 2073.21
91.531097 198.644 2273.6299
89.5411 200.092 2275.6299
88.514999 201.105 2277.49
87.488899 202.12 2279.3601
85.498497 203.571 2281.3701
84.472198 204.58701 2283.24
83.445801 205.603 2285.1201
82.419403 206.62 2287
81.392899 207.638 2288.8799
5.3474102 160.07401 2034.3
7.2000699 159.89999 2036.15
11.9301 158.55 2038.02
47.351898 144.647 2040.0601
48.2472 144.849 2041.86
51.060902 144.265 2043.66
58.670898 141.713 2045.47
58.607399 142.304 2047.25
58.543999 142.895 2049.03
116.999 119.443 2050.8
122.694 117.647 2052.51
131.267 114.663 2054.21
131.207 115.229 2055.9099
131.146 115.795 2057.6101
133.964 115.173 2059.3
139.66 113.361 2060.97
141.519 113.131 2062.6499
142.418 113.297 2064.3301
143.317 113.462 2066.02
145.177 113.228 2067.6899
147.036 112.994 2069.3501
149.855 112.36 2071
151.714 112.122 2072.6599
154.534 111.484 2074.3
157.354 110.845 2075.9399
91.868202 199.786 2271.3301
89.878601 201.23599 2273.3301
88.852699 202.25 2275.1899
86.8629 203.701 2277.1899
85.8368 204.717 2279.0601
84.810699 205.733 2280.9299
83.7845 206.75101 2282.8101
82.758301 207.76801 2284.6899
81.731903 208.787 2286.5701
48.5947 146.02699 2039.49
50.448898 145.834 2041.29
53.262199 145.24699 2043.09
58.9529 143.47501 2044.89
58.8895 144.06599 2046.67
58.826 144.657 2048.45
111.517 123.515 2050.24
122.965 119.343 2051.96
122.904 119.912 2053.6699
125.721 119.292 2055.3799
128.53799 118.671 2057.0701
130.396 118.444 2058.77
133.213 117.819 2060.46
136.03101 117.192 2062.1399
136.92999 117.358 2063.8301
142.62601 115.534 2065.48
144.485 115.299 2067.1499
146.34399 115.062 2068.8201
149.162 114.426 2070.47
152.94099 113.388 2072.1101
154.8 113.147 2073.76
158.57899 112.104 2075.3799
160.439 111.859 2077.02
90.216202 202.379 2271.03
89.190498 203.394 2272.8899
87.200996 204.847 2274.8899
86.175201 205.86301 2276.76
85.1492 206.88 2278.6299
84.123199 207.89799 2280.5
83.097198 208.916 2282.3799
82.070999 209.935 2284.26
54.5676 146.026 2040.73
54.504002 146.619 2042.52
56.3582 146.42101 2044.3101
56.294701 147.013 2046.09
61.026001 145.62601 2047.88
103.159 128.78799 2049.6799
113.646 125.003 2051.4099
113.585 125.575 2053.1299
116.401 124.956 2054.8501
123.054 122.745 2056.54
125.87 122.12 2058.24
129.646 121.096 2059.9299
131.504 120.866 2061.6201
134.321 120.235 2063.3101
137.138 119.603 2064.98
142.834 117.77 2066.6201
146.61099 116.733 2068.27
149.429 116.094 2069.9299
153.207 115.052 2071.5601
155.06599 114.809 2073.22
158.84399 113.762 2074.8401
160.70399 113.516 2076.48
93.444099 202.21001 2268.3501
89.528198 204.53799 2270.5901
88.502701 205.554 2272.45
86.513496 207.009 2274.45
85.487801 208.02699 2276.3201
84.461998 209.04601 2278.1899
83.436096 210.065 2280.0701
83.373802 210.644 2281.8101
82.3479 211.664 2283.6899
83.249397 211.804 2285.3
59.580399 146.40601 2041.97
58.558201 147.39301 2043.74
57.5359 148.381 2045.52
61.307701 147.386 2047.3101
87.133202 137.254 2049.1101
104.331 130.68201 2050.8501
113.858 127.28 2052.5801
113.797 127.852 2054.3
114.694 128.026 2056.02
121.346 125.807 2057.71
125.121 124.78 2059.4099
127.937 124.15 2061.1001
131.713 123.118 2062.78
134.53 122.484 2064.46
141.18401 120.246 2066.0901
145.91901 118.805 2067.74
149.696 117.762 2069.3799
153.47301 116.716 2071.02
155.332 116.471 2072.6699
159.11 115.42 2074.3
160.96899 115.172 2075.9399
162.828 114.922 2077.5801
91.792603 204.80499 2268.04
88.840599 206.69901 2270.1499
86.851799 208.15601 2272.1399
85.826302 209.174 2274.01
84.800697 210.19299 2275.8899
86.665398 209.892 2277.3701
87.566803 210.03 2278.98
87.5047 210.608 2280.73
87.442596 211.187 2282.47
87.380501 211.765 2284.21
60.694099 148.952 2044.95
61.589401 149.145 2046.73
65.360802 148.14301 2048.51
74.884804 144.748 2050.29
104.544 132.97301 2052.03
110.235 131.15401 2053.75
110.173 131.72701 2055.48
112.988 131.101 2057.1899
120.598 128.474 2058.8799
124.372 127.442 2060.5701
128.147 126.407 2062.25
131.922 125.371 2063.9299
138.575 123.127 2065.5701
145.228 120.878 2067.2
149.963 119.43 2068.8401
153.74001 118.38 2070.48
155.59801 118.133 2072.1299
159.375 117.078 2073.76
161.23399 116.828 2075.3999
162.134 116.98 2077.0601
94.056198 205.069 2265.49
91.104897 206.965 2267.6001
88.153297 208.862 2269.71
87.127998 209.881 2271.5801
85.139397 211.34 2273.5801
87.003799 211.03799 2275.0701
89.831596 210.293 2276.4199
89.7696 210.871 2278.1599
89.707603 211.448 2279.8999
87.718697 212.911 2281.8999
87.656601 213.489 2283.6499
69.602097 147.127 2044.41
63.788101 150.10699 2046.16
65.641899 149.89799 2047.9399
68.4543 149.289 2049.72
75.101402 147.07899 2051.48
104.756 135.263 2053.2
104.695 135.839 2054.9299
104.633 136.414 2056.6699
130.27499 127.861 2063.3899
136.92599 125.611 2065.04
141.66 124.162 2066.6899
150.23 121.098 2068.29
154.006 120.044 2069.9299
155.864 119.795 2071.5901
158.68201 119.14 2073.23
159.58099 119.293 2074.8899
161.44 119.04 2076.53
94.393204 206.211 2263.2
92.405403 207.668 2265.1799
89.454399 209.567 2267.29
88.429398 210.586 2269.1499
86.441101 212.047 2271.1399
87.342102 212.18401 2272.76
90.169296 211.437 2274.1201
90.1073 212.015 2275.8601
90.045303 212.593 2277.6001
89.983299 213.17 2279.3401
87.994698 214.63499 2281.3401
87.932602 215.213 2283.0801
64.069504 151.864 2045.59
65.922897 151.65401 2047.37
65.859703 152.243 2049.1399
68.671799 151.629 2050.9099
75.3181 149.41 2052.6799
81.964798 147.186 2054.4199
94.363403 142.548 2056.1399
135.278 128.10001 2064.51
141.929 125.839 2066.1499
144.745 125.189 2067.8101
153.314 122.112 2069.3999
155.172 121.861 2071.0601
157.03 121.609 2072.71
158.888 121.356 2074.3601
159.787 121.507 2076.02
161.645 121.252 2077.6699
93.705498 208.37 2262.76
91.718002 209.82899 2264.74
89.730301 211.28999 2266.72
87.7425 212.752 2268.71
87.680397 213.33 2270.46
89.544098 213.024 2271.95
90.445099 213.159 2273.5601
90.383003 213.737 2275.3
90.320999 214.315 2277.04
105.668 207.78999 2276.6899
107.533 207.47501 2278.1599
107.472 208.04601 2279.8799
107.41 208.618 2281.6001
64.3508 153.621 2045.02
59.496498 156.216 2046.78
58.474701 157.209 2048.5601
60.327801 156.99699 2050.3401
68.889297 153.97 2052.1101
74.576302 152.144 2053.8701
79.305397 150.716 2055.6201
132.672 130.996 2063.98
138.36301 129.134 2065.6299
141.17799 128.483 2067.3
146.87 126.614 2068.9299
153.521 124.336 2070.54
155.37801 124.082 2072.2
157.23599 123.828 2073.8501
159.09399 123.572 2075.5
159.993 123.722 2077.1599
93.018097 210.53101 2262.3201
90.068298 212.435 2264.4199
89.043503 213.455 2266.28
88.0187 214.47701 2268.1499
89.882103 214.16901 2269.6399
89.82 214.74699 2271.3799
90.720802 214.881 2273
90.658798 215.459 2274.74
90.596703 216.037 2276.48
107.867 208.60699 2275.8799
107.806 209.179 2277.6001
107.745 209.75101 2279.3201
107.683 210.32201 2281.04
64.632202 155.379 2044.4399
59.778599 157.978 2046.2
57.799 159.37399 2047.98
58.6936 159.564 2049.76
60.546398 159.349 2051.54
66.232201 157.52 2053.3101
70.960098 156.091 2055.0801
79.521599 153.04201 2056.8101
131.02499 133.493 2063.45
135.757 132.032 2065.1101
136.65401 132.19099 2066.8
142.345 130.31799 2068.4399
150.911 127.221 2070.03
153.72701 126.559 2071.6799
154.62601 126.711 2073.3501
157.442 126.046 2074.98
159.299 125.788 2076.6299
94.317902 211.231 2259.8999
90.406197 213.58 2262.1201
89.381699 214.601 2263.98
91.244598 214.29201 2265.48
91.182602 214.87 2267.22
91.120598 215.448 2268.96
90.095901 216.47 2270.8201
90.033897 217.048 2272.5601
101.524 212.284 2272.77
102.425 212.41299 2274.3701
108.14 210.311 2275.3201
108.079 210.883 2277.04
108.017 211.455 2278.76
64.913597 157.136 2043.87
60.060799 159.741 2045.63
58.081501 161.138 2047.41
58.975899 161.327 2049.1899
60.8284 161.11 2050.97
66.513199 159.276 2052.74
66.449997 159.864 2054.52
71.177399 158.429 2056.27
81.653999 154.558 2057.99
115.128 140.94501 2059.5701
115.066 141.517 2061.29
123.629 138.43201 2062.95
129.31799 136.562 2064.6201
133.09 135.50101 2066.29
136.86301 134.438 2067.95
143.511 132.149 2069.5701
151.118 129.448 2071.1699
152.97501 129.19099 2072.8301
154.832 128.933 2074.48
158.60699 127.856 2076.1001
160.464 127.594 2077.75
93.692802 212.817 2257.72
90.744102 214.724 2259.8201
89.719803 215.746 2261.6799
91.582298 215.436 2263.1799
91.520302 216.01401 2264.9099
91.458298 216.592 2266.6499
91.396301 217.17 2268.3899
90.371803 218.19299 2270.26
102.822 212.97501 2270.3601
103.723 213.103 2271.96
103.662 213.67599 2273.6799
108.413 212.01601 2274.77
108.352 212.58701 2276.49
108.29 213.159 2278.21
60.342999 161.50301 2045.05
57.4062 163.30701 2046.83
58.3004 163.495 2048.6101
60.152599 163.27699 2050.3899
62.004902 163.05701 2052.1699
66.731102 161.62 2053.9399
71.457703 160.179 2055.7
81.932602 156.297 2057.4299
94.324303 151.595 2059.1201
102.885 148.51199 2060.8101
119.111 142.16499 2062.4299
123.84 140.698 2064.1101
128.57001 139.22701 2065.78
132.342 138.162 2067.45
138.03 136.27699 2069.0901
143.71899 134.38699 2070.72
150.367 132.08501 2072.3201
153.18201 131.416 2073.97
157.914 129.92599 2075.5801
159.771 129.662 2077.22
93.068199 214.40401 2255.54
91.0821 215.869 2257.51
90.057899 216.892 2259.3701
90.958 217.02499 2260.99
91.858101 217.158 2262.6101
91.795998 217.73599 2264.3501
91.734001 218.314 2266.0901
103.219 213.53799 2266.3401
104.12 213.66499 2267.95
105.021 213.79201 2269.55
104.959 214.36501 2271.27
104.898 214.938 2273
108.686 213.72 2274.21
108.625 214.29201 2275.9299
60.625099 163.265 2044.48
57.688801 165.07201 2046.25
60.498199 164.448 2048.04
62.350101 164.22701 2049.8201
66.117699 163.19299 2051.6001
69.885498 162.155 2053.3601
72.695801 161.52299 2055.1299
82.211098 158.037 2056.8601
94.6008 153.32201 2058.5601
103.16 150.23 2060.25
112.677 146.724 2061.9199
119.322 144.437 2063.6001
123.092 143.37199 2065.28
126.864 142.30499 2066.96
132.55099 140.416 2068.6101
138.239 138.52299 2070.24
143.927 136.625 2071.8701
150.57401 134.314 2073.46
156.26401 132.408 2075.0601
159.078 131.733 2076.7
160.935 131.467 2078.3401
93.405701 215.547 2253.24
91.419998 217.01401 2255.21
90.396004 218.037 2257.0701
89.372002 219.061 2258.9299
91.233803 218.748 2260.4299
92.133797 218.88 2262.05
92.0718 219.45799 2263.79
104.517 214.22701 2263.9399
106.38 213.90601 2265.4199
106.318 214.479 2267.1399
106.257 215.052 2268.8601
106.195 215.625 2270.5901
105.171 216.646 2272.4399
105.11 217.21899 2274.1699
60.843899 165.619 2045.6801
62.6954 165.397 2047.47
68.377197 163.54601 2049.25
70.229202 163.32001 2051.02
73.038902 162.685 2052.79
75.848801 162.048 2054.55
81.531998 160.185 2056.29
94.877296 155.049 2057.99
98.646103 153.993 2059.72
107.204 150.888 2061.3999
112.889 149.005 2063.0901
117.617 147.52901 2064.78
121.387 146.46001 2066.46
127.074 144.567 2068.1201
132.75999 142.67 2069.76
138.448 140.769 2071.3899
144.13499 138.864 2073.01
150.78101 136.543 2074.6101
158.386 133.80499 2076.1699
160.243 133.537 2077.8201
96.628197 215.355 2250.5901
91.757896 218.159 2252.9099
90.7342 219.183 2254.76
89.710297 220.207 2256.6201
89.648201 220.786 2258.3601
91.509697 220.47099 2259.8701
91.447701 221.049 2261.6101
104.852 215.36301 2261.6499
106.714 215.041 2263.1299
107.615 215.166 2264.73
107.553 215.73801 2266.46
107.492 216.311 2268.1799
72.550697 163.08099 2046.91
72.487701 163.668 2048.6799
75.296898 163.03101 2050.45
76.191399 163.209 2052.22
80.915901 161.75 2053.97
83.7257 161.10699 2055.72
90.365997 158.82401 2057.45
97.006798 156.535 2059.1699
102.69 154.653 2060.8701
108.375 152.76601 2062.5701
113.101 151.287 2064.26
117.828 149.804 2065.9399
121.598 148.729 2067.6201
128.242 146.416 2069.26
132.97 144.923 2070.9099
138.65601 143.01401 2072.54
148.175 139.45 2074.1001
153.862 137.532 2075.7
159.55 135.61 2077.29
161.407 135.339 2078.9299
94.980301 217.965 2250.26
91.072304 220.328 2252.46
89.087097 221.8 2254.4299
89.024902 222.38 2256.1799
90.886002 222.064 2257.6799
91.785599 222.194 2259.3101
91.723503 222.772 2261.05
107.049 216.175 2260.8501
109.873 215.40199 2262.21
110.773 215.52499 2263.8101
110.712 216.09599 2265.53
80.425697 162.14799 2048.1201
80.362999 162.733 2049.8799
81.2575 162.908 2051.6399
84.066803 162.26199 2053.3999
85.9189 162.02499 2055.1499
90.643303 160.55499 2056.8799
94.410698 159.493 2058.6201
100.093 157.605 2060.3301
104.819 156.12601 2062.03
109.545 154.642 2063.73
114.271 153.15601 2065.4199
119.955 151.254 2067.0901
124.682 149.75999 2068.75
130.367 147.85001 2070.3999
135.095 146.35001 2072.04
141.73801 144.019 2073.6499
152.214 140.026 2075.1899
158.858 137.685 2076.76
160.714 137.412 2078.4099
96.278999 218.662 2247.8501
92.371696 221.02699 2250.04
90.387001 222.5 2252.01
89.363403 223.526 2253.8701
91.224197 223.209 2255.3799
91.162102 223.78799 2257.1201
91.099998 224.366 2258.8601
107.384 217.31 2258.5701
111.169 216.08501 2259.8101
111.108 216.65601 2261.53
111.046 217.228 2263.25
110.985 217.799 2264.97
83.513298 163.245 2049.3201
84.407799 163.418 2051.0701
85.302299 163.59 2052.8301
88.111397 162.94 2054.5801
91.877899 161.87601 2056.3201
93.730103 161.633 2058.0601
100.369 159.327 2059.77
104.136 158.255 2061.48
108.861 156.767 2063.1799
112.629 155.689 2064.8799
117.355 154.19501 2066.5601
123.039 152.284 2068.22
127.765 150.783 2069.8799
133.45 148.86501 2071.52
139.134 146.942 2073.1399
148.64999 143.355 2074.7
157.209 140.17599 2076.25
159.064 139.903 2077.8999
160.92 139.62801 2079.54
96.616096 219.804 2245.55
92.709702 222.172 2247.74
90.725304 223.646 2249.71
89.702003 224.673 2251.5601
93.484802 223.457 2252.8401
93.422699 224.035 2254.5801
93.360703 224.61301 2256.3201
107.719 218.444 2256.29
85.643204 164.745 2050.51
86.537598 164.916 2052.26
88.389099 164.674 2054.01
93.112099 163.194 2055.75
95.921204 162.536 2057.48
98.7304 161.87601 2059.21
104.411 159.97301 2060.9199
109.136 158.48 2062.6201
112.903 157.399 2064.3201
116.671 156.314 2066.01
122.353 154.39799 2067.6699
127.079 152.892 2069.3401
131.80499 151.383 2070.99
136.53101 149.871 2072.6299
145.088 146.69099 2074.21
151.73 144.338 2075.8
157.41499 142.39799 2077.3899
159.271 142.121 2079.04
97.015198 220.369 2241.52
95.031502 221.842 2243.48
93.0476 223.317 2245.4399
91.063599 224.79201 2247.3999
90.040497 225.82001 2249.26
93.822502 224.601 2250.54
93.760498 225.179 2252.28
93.698502 225.757 2254.02
89.623802 165.996 2053.4399
96.259903 163.683 2055.1799
98.111603 163.435 2056.9099
99.963501 163.185 2058.6499
102.773 162.52 2060.3701
109.41 160.194 2062.0601
113.177 159.108 2063.76
116.944 158.019 2065.45
119.754 157.34399 2067.1499
125.436 155.41901 2068.8
130.161 153.90601 2070.46
134.886 152.38901 2072.1101
139.612 150.87 2073.74
148.168 147.677 2075.3101
151.937 146.567 2076.9399
156.664 145.037 2078.54
156.604 145.595 2080.22
96.391701 221.96001 2239.3301
94.408302 223.435 2241.28
92.424797 224.911 2243.24
91.401901 225.938 2245.0901
90.378998 226.967 2246.95
93.199402 226.196 2248.3501
94.098198 226.323 2249.98
94.036201 226.901 2251.72
98.449898 164.58099 2054.6101
99.344597 164.745 2056.3501
100.239 164.908 2058.0801
103.048 164.24001 2059.8101
106.814 163.15401 2061.52
113.45 160.817 2063.2
117.217 159.72501 2064.8999
120.983 158.63 2066.5801
126.665 156.698 2068.24
129.47501 156.015 2069.9199
133.242 154.911 2071.5801
137.00999 153.806 2073.23
143.64999 151.442 2074.8401
149.33299 149.492 2076.4399
155.01601 147.539 2078.03
154.95599 148.09801 2079.71
96.729103 223.103 2237.03
94.746101 224.57899 2238.98
92.762901 226.056 2240.9399
91.740303 227.08501 2242.79
90.717499 228.114 2244.6399
90.655296 228.69299 2246.3899
93.475304 227.91901 2247.79
94.374001 228.045 2249.4199
100.577 166.05299 2055.78
101.472 166.215 2057.52
103.323 165.96001 2059.25
106.132 165.287 2060.97
111.811 163.36 2062.6599
117.49 161.42999 2064.3401
121.256 160.33099 2066.03
126.936 158.39301 2067.6899
128.789 158.12601 2069.3799
130.642 157.856 2071.0601
134.409 156.74699 2072.72
140.09 154.797 2074.3401
144.815 153.263 2075.97
152.412 150.465 2077.54
152.351 151.02499 2079.22
152.291 151.58501 2080.9099
96.044197 225.27299 2236.5701
94.061401 226.75101 2238.53
92.078598 228.231 2240.48
91.056 229.25999 2242.3401
90.993896 229.84 2244.0801
91.892197 229.967 2245.71
93.751198 229.642 2247.23
93.689102 230.22 2248.97
101.748 167.937 2056.96
106.468 166.42799 2058.6699
108.32 166.168 2060.3999
112.085 165.07201 2062.1001
115.85 163.972 2063.8
121.528 162.033 2065.47
127.207 160.089 2067.1299
129.06 159.819 2068.8301
130.91299 159.548 2070.51
133.722 158.855 2072.1799
135.575 158.58099 2073.8601
140.299 157.043 2075.49
145.98 155.08099 2077.1001
149.748 153.95799 2078.73
149.688 154.519 2080.4199
151.541 154.23599 2082.0701
98.302002 225.515 2234.0601
95.359497 227.44501 2236.1201
93.377098 228.92599 2238.0701
92.354797 229.95599 2239.9199
91.332397 230.98599 2241.77
90.309898 232.01801 2243.6299
92.168404 231.692 2245.1499
92.1063 232.271 2246.8899
92.044098 232.849 2248.6299
112.152 223.901 2247.99
107.7 167.72701 2058.1101
110.507 167.04601 2059.8201
114.271 165.94501 2061.53
118.036 164.841 2063.23
120.844 164.15401 2064.9299
124.609 163.045 2066.6101
129.33099 161.51199 2068.27
131.183 161.239 2069.96
133.993 160.54401 2071.6299
133.93201 161.11 2073.3401
137.698 159.99001 2074.99
143.37801 158.02299 2076.6001
147.145 156.897 2078.23
147.08501 157.459 2079.9199
147.981 157.59801 2081.5901
101.519 225.30299 2231.46
98.577202 227.23399 2233.5
95.6353 229.16701 2235.5601
94.613197 230.19701 2237.3999
91.670898 232.133 2239.47
91.608704 232.71201 2241.21
92.506699 232.838 2242.8401
92.444603 233.41701 2244.5801
92.3825 233.995 2246.3301
92.320297 234.57401 2248.0701
112.424 225.605 2247.4299
118.432 165.40199 2059.23
118.37 165.974 2060.95
121.178 165.285 2062.6499
124.942 164.173 2064.3401
124.881 164.743 2066.05
129.60201 163.20599 2067.72
131.45399 162.931 2069.4099
134.263 162.23199 2071.0801
134.202 162.799 2072.79
137.011 162.097 2074.45
140.77699 160.97099 2076.0901
143.586 160.265 2077.75
143.526 160.828 2079.4399
145.379 160.54401 2081.1001
146.27499 160.68201 2082.78
100.834 227.472 2231
97.8927 229.40601 2233.05
96.870796 230.436 2234.8899
94.889099 231.92 2236.8401
92.907204 233.405 2238.79
91.885101 234.438 2240.6499
92.782898 234.563 2242.28
92.720802 235.142 2244.02
92.658699 235.72 2245.76
92.596497 236.299 2247.51
112.697 227.31 2246.8701
112.636 227.881 2248.6001
124.38 165.153 2060.3601
125.275 165.302 2062.0701
125.214 165.871 2063.78
127.066 165.597 2065.48
129.873 164.899 2067.1699
129.812 165.468 2068.8799
132.621 164.767 2070.55
134.47301 164.487 2072.24
137.28101 163.783 2073.8999
141.04601 162.653 2075.55
140.98599 163.217 2077.24
140.925 163.78101 2078.9399
141.821 163.92 2080.6201
142.717 164.05901 2082.3
143.61301 164.19701 2083.98
104.05 227.254 2228.3999
102.069 228.73599 2230.3401
99.127701 230.672 2232.3799
98.106102 231.703 2234.22
97.084396 232.73399 2236.0701
94.143097 234.67599 2238.1201
93.121201 235.709 2239.97
93.059097 236.28799 2241.72
92.997002 236.867 2243.46
92.934898 237.44501 2245.2
89.992897 239.39301 2247.28
98.570503 235.86301 2248.01
125.547 167 2061.51
130.267 165.457 2063.1899
133.07401 164.756 2064.8799
133.96899 164.89999 2066.5801
133.908 165.466 2068.28
133.84801 166.033 2069.99
132.83 167.02499 2071.71
135.638 166.31799 2073.3799
137.49001 166.034 2075.05
138.386 166.174 2076.74
139.282 166.314 2078.4299
139.22099 166.879 2080.1299
140.117 167.017 2081.8101
141.013 167.155 2083.49
142.86501 166.866 2085.1499
103.303 229.99699 2229.6699
101.322 231.48199 2231.6101
99.341103 232.968 2233.5601
97.360001 234.455 2235.5
94.419197 236.39999 2237.5601
93.3974 237.43401 2239.4099
92.375603 238.46899 2241.26
89.434303 240.418 2243.3301
135.196 166.16499 2066.02
135.13499 166.731 2067.72
135.07401 167.298 2069.4299
135.013 167.864 2071.1299
134.952 168.431 2072.8401
135.84801 168.57201 2074.53
136.743 168.71201 2076.22
136.68201 169.27699 2077.9199
136.62199 169.843 2079.6299
136.561 170.409 2081.3301
137.457 170.547 2083.02
138.35201 170.685 2084.7
141.161 169.965 2086.3401
105.496 230.802 2228.9099
103.516 232.28799 2230.8501
101.535 233.77499 2232.79
97.635597 236.17599 2234.9399
94.695198 238.12399 2237
93.673599 239.159 2238.8501
137.256 168.13499 2068.8601
137.196 168.701 2070.5601
135.22301 170.12 2072.29
136.118 170.259 2073.98
136.05701 170.825 2075.6799
135.996 171.392 2077.3899
135.936 171.95799 2079.0901
136.83099 172.09599 2080.78
136.77 172.662 2082.49
137.666 172.799 2084.1699
138.561 172.935 2085.8501
141.37 172.211 2087.49
108.648 231.146 2228.04
103.79 234.00301 2230.29
101.81 235.492 2232.23
97.911102 237.897 2234.3799
94.971199 239.84801 2236.4399
137.466 170.38699 2070.01
137.405 170.953 2071.71
137.34399 171.519 2073.4199
137.283 172.08501 2075.1201
137.22301 172.651 2076.8201
136.20599 173.645 2078.54
136.145 174.21201 2080.25
137.03999 174.34801 2081.9299
136.98 174.914 2083.6399
137.875 175.05 2085.3201
140.683 174.32401 2086.96
146.35899 172.30299 2088.53
110.901 231.369 2225.5601
108.922 232.856 2227.49
104.065 235.718 2229.73
102.085 237.209 2231.6699
95.309402 240.993 2234.1299
95.247299 241.571 2235.8701
95.185204 242.14999 2237.6201
141.498 170.925 2071.1101
139.526 172.34801 2072.8401
138.509 173.342 2074.5601
137.493 174.33701 2076.27
136.476 175.33299 2077.99
136.41499 175.899 2079.7
137.31 176.035 2081.3799
137.25 176.601 2083.0901
138.145 176.735 2084.77
140.952 176.006 2086.4099
145.672 174.412 2088
147.52299 174.11 2089.6499
109.257 233.993 2225.2
109.195 234.567 2226.9299
102.422 238.35001 2229.3701
96.6064 241.67999 2231.72
96.544403 242.258 2233.47
96.4823 242.836 2235.21
95.461197 243.87399 2237.05
139.795 174.032 2072.29
139.735 174.59801 2073.99
138.718 175.593 2075.71
136.746 177.021 2077.4399
136.686 177.58701 2079.1499
137.58 177.72099 2080.8301
137.52 178.287 2082.54
138.41499 178.42101 2084.22
141.222 177.689 2085.8601
144.98399 176.522 2087.48
146.836 176.21899 2089.1299
149.64301 175.481 2090.75
96.882301 243.403 2231.1599
96.820198 243.981 2232.8999
140.004 176.282 2073.4399
138.98801 177.27901 2075.1599
137.017 178.70799 2076.8899
136.95599 179.274 2078.6001
137.851 179.408 2080.28
137.78999 179.974 2081.99
138.685 180.10699 2083.6699
141.491 179.37199 2085.3101
144.297 178.63499 2086.95
146.14799 178.33 2088.6001
148 178.024 2090.25
150.80701 177.282 2091.8701
119.328 233.38499 2224.8
144.035 176.802 2074.54
137.287 180.396 2076.3401
136.271 181.395 2078.0601
138.121 181.095 2079.73
139.015 181.22701 2081.4199
139.91 181.358 2083.1001
140.80499 181.489 2084.78
143.61099 180.74899 2086.4199
145.46201 180.44299 2088.0801
146.35699 180.571 2089.75
150.119 179.39 2091.3501
152.92599 178.644 2092.96
111.591 233.50101 2207.8899
111.529 234.075 2209.6101
112.426 234.19 2211.25
113.323 234.304 2212.8799
113.261 234.877 2214.6001
119.723 233.944 2220.8101
145.198 178.61301 2075.6699
135.586 183.51801 2077.52
137.435 183.216 2079.2
139.285 182.912 2080.8701
140.17999 183.043 2082.55
142.03 182.737 2084.21
142.925 182.866 2085.8899
145.73 182.12199 2087.53
147.58099 181.812 2089.1799
151.342 180.62801 2090.78
154.149 179.877 2092.3899
156 179.563 2094.03
155.94 180.12199 2095.71
111.926 234.63699 2205.6001
109.949 236.12801 2207.51
110.845 236.243 2209.1499
110.784 236.817 2210.8701
114.554 235.55099 2212.23
114.492 236.12399 2213.95
120.057 235.07401 2218.54
139.616 184.032 2078.6101
139.55499 184.59801 2080.3201
140.45 184.72701 2082
