# .PCD v0.7 - Point Cloud Data file format
VERSION 0.7
FIELDS x y z
SIZE 4 4 4
TYPE F F F
COUNT 1 1 1
WIDTH 1683
HEIGHT 1
VIEWPOINT -0 -0 -0 1 0 0 0
POINTS 1683
DATA ascii
55.506325 203.48949 2273.8174
58.836201 203.49901 2273.9802
62.819649 203.28601 2273.96
65.558403 203.56799 2273.8101
68.238899 203.802 2274.155
71.874352 204.16251 2274.1201
74.699852 203.5455 2273.9399
89.021599 202.82199 2274.04
-158.7635 204.9095 2272.7051
-155.00067 205.78267 2273.72
-151.88451 207.2435 2274.1802
-135.51349 206.783 2272.98
-133.17799 207.909 2274.72
59.0555 205.72 2273.105
62.829597 205.23 2272.5449
67.419197 205.718 2272.1299
87.405731 205.80333 2273.9299
-152.0625 209.21649 2272.2351
-149.414 209.345 2273.5801
-132.838 209.69099 2273.9399
85.826302 209.174 2274.01
86.927795 209.597 2273.605
-147.817 211.27 2273.8701
-145.58 212.68965 2273.8733
-132.63666 212.40132 2273.4631
-130.965 213.752 2274.3601
85.139397 211.34 2273.5801
87.342102 212.18401 2272.76
90.307198 212.298 2273.8401
101.524 212.284 2272.77
-145.269 215.83366 2272.7166
-142.38634 216.64532 2273.4534
-139.504 217.35001 2275.1899
-129.34999 216.72301 2273.8232
90.471169 215.79601 2273.4333
-141.42999 219.18201 2273.02
-139.66701 219.228 2274.25
-128.96899 218.85201 2272.1899
-127.775 219.35201 2274.1599
-141.59399 221.064 2272.0801
-138.71001 221.875 2272.8066
-136.46899 223.189 2273.8301
-130.25351 222.255 2273.825
-145.882 225.565 2274.8201
-135.8335 225.86975 2274.5349
-131.757 224.905 2273.6499
-145.24834 228.758 2274.1367
-135.63901 229.19533 2273.1799
-134.347 227.422 2272.4099
-76.262199 229.317 2273.53
-144.763 231.2375 2273.4102
-134.77733 231.18834 2273.3069
-133.593 230.703 2273.53
-78.395302 232.61099 2274.4299
-128.623 234.828 2273.3301
-125.9845 234.94299 2274.675
-81.026665 235.37233 2274.2334
-78.488098 234.623 2272.5
-122.6065 237.20099 2273.6899
-119.965 237.373 2274.53
-117.70899 238.88066 2273.8767
-113.9385 239.806 2274.385
-81.587601 238.72852 2273.3149
-116.724 241.591 2272.1101
-114.0725 241.82249 2272.4502
-110.48125 241.062 2274.3726
-107.26801 241.66101 2274.6299
-103.489 242.627 2274.8149
-100.84 242.858 2275.1499
-99.050102 243.133 2274.3799
-82.193703 241.92867 2273.7302
-109.8 244.108 2272.0801
-107.14799 244.33899 2272.4199
-103.611 244.64751 2272.875
-100.959 244.879 2273.22
-97.282799 243.287 2274.6101
-93.668701 243.959 2272.0601
-91.041 244.0695 2273.405
-87.502197 244.37799 2273.855
-84.784698 244.853 2272.2
-81.777733 244.51666 2272.5598
115.658 9.5748997 2275.3701
85.7547 11.6113 2275.3101
88.422852 11.84405 2275.6499
91.090897 12.0768 2275.99
93.827049 12.30245 2275.8398
96.564201 12.5282 2275.6899
110.709 11.8208 2277.73
116.843 11.4683 2276.3799
121.937 12.0017 2276.8601
69.010498 15.6084 2275.4299
71.944466 15.278867 2276.45
75.393005 14.363199 2276.165
78.882553 14.67955 2277.1201
81.01535 13.0268 2275.7949
84.440498 13.3505 2277.2451
87.993851 13.6604 2277.7002
91.54715 13.9704 2278.155
97.903503 14.4999 2277.96
100.84965 14.70705 2276.3198
104.55051 15.00495 2275.7849
122.825 14.32855 2275.9751
25.233801 19.0905 2275.2
27.169001 17.4627 2275.3601
29.8262 17.69445 2275.7002
33.752766 17.431135 2275.8401
37.045448 17.415476 2276.0801
40.455151 18.62155 2277.0649
43.353951 17.945601 2275.8799
45.877602 19.074902 2276.7549
62.346397 18.65155 2275.7549
66.288269 18.387899 2275.9001
69.551895 17.490101 2277.1001
72.153198 17.7279 2277.9399
74.670105 16.739967 2277.8701
104.992 16.897301 2277.95
107.34967 18.290068 2277.6365
109.7905 18.1478 2275.5801
120.456 16.573601 2277.72
123.298 18.216 2276.5698
17.7288 22.045601 2275.4099
20.384449 22.2773 2275.7549
24.974199 20.882099 2276.26
27.711649 20.223049 2276.5649
30.3673 20.454651 2276.9099
32.997753 20.688524 2277.4976
36.645752 20.1045 2277.675
40.2393 20.408699 2277.625
43.8344 20.71295 2277.585
46.4916 20.9447 2277.9299
49.3134 20.277824 2277.4875
53.079849 19.683449 2276.665
55.7402 19.915501 2277.01
58.5158 20.137899 2276.355
62.00605 20.4522 2277.3101
65.494751 20.76635 2278.2649
68.440002 19.2038 2277.55
110.145 20.932899 2277.77
113.1805 21.143351 2275.6401
122.528 20.7834 2277.8398
125.163 20.1961 2275.55
8.4630299 24.843 2275.3999
11.1172 25.074499 2275.74
15.005433 24.815134 2276.2134
17.565201 23.827 2275.47
20.22085 24.058599 2275.8149
23.7481 23.484201 2277.2349
111.20901 23.419031 2277.3499
113.825 23.910751 2275.8501
123.574 24.40513 2277.1599
6.3666101 28.249201 2275.3
7.6265264 27.166868 2275.7434
10.828077 27.747276 2276.335
14.4027 27.168999 2277.2549
18.021099 26.587873 2277.6775
20.673698 26.81925 2278.02
22.5238 26.0839 2278.22
113.357 26.609699 2277.4299
116.0945 27.7334 2276.8149
123.919 26.718201 2276.71
125.162 28.034149 2276.04
5.3914504 31.169001 2276.6602
8.6841946 30.2684 2277.7002
13.2659 28.875601 2278.21
119.26933 30.107332 2276.6533
127.35 29.277 2276.0701
129.375 29.9632 2277.2051
131.72501 31.748899 2276.1299
-10.3629 33.984299 2275.51
-7.7118449 34.215549 2275.8501
-3.21399 34.5998 2275.4199
1.5286274 34.418331 2276.3367
3.9392099 33.4394 2277.26
120.138 32.603901 2277.55
122.556 34.004868 2276.9067
133.16266 32.753666 2276.7034
136.06799 34.4799 2277.0151
-11.4915 36.574501 2275.49
-7.9568124 36.882828 2275.9451
-4.4221277 37.191151 2276.3975
-1.73089 37.422401 2276.24
0.9615646 36.764549 2277.0449
3.6524649 36.106552 2277.855
123.677 36.500198 2276.1599
136.41133 36.778 2276.5735
-14.469151 39.899651 2275.28
-11.836874 40.130226 2275.8674
-8.3409824 40.437374 2276.8223
-4.74579 39.856552 2277.4951
-0.83725768 39.598301 2277.6301
1.59951 38.618599 2278.22
125.2135 39.348152 2276.4849
136.90132 40.456367 2276.6067
-16.6448 44.191002 2275.21
-13.96715 43.529922 2276.2676
-11.335899 43.760151 2276.8599
-8.6433001 43.1007 2277.665
126.668 43.093449 2276.8401
137.1705 42.756248 2277.0901
-25.874399 46.970501 2275.2
-24.108101 47.1245 2275.4299
-21.458651 47.355652 2275.77
-17.5534 47.098896 2275.9067
-14.578967 46.761471 2276.5967
-10.348773 45.936199 2277.0833
-7.96175 44.952 2278.3401
126.2615 46.68005 2277.4648
136.01234 46.577198 2276.8865
-29.797501 50.208599 2275.8799
-26.778933 49.875599 2275.9001
-23.503599 49.863121 2276.1377
-20.305235 50.440266 2276.7334
-18.089251 49.440948 2276.2849
-14.207867 49.182369 2276.76
-10.942434 49.168625 2277.165
126.8285 49.44585 2278.175
134.17101 50.277153 2276.575
135.82401 48.172001 2277.6899
-33.57275 52.56485 2275.52
-30.924801 52.795799 2275.8574
-27.394274 53.103752 2276.3125
-24.198133 53.080364 2277.7166
-20.321251 52.822048 2278.1851
-17.440599 51.286499 2277.46
-14.7927 51.517448 2277.8049
-11.26215 51.825401 2278.26
132.97549 52.481899 2276.2349
-33.016327 56.19405 2275.76
-30.36845 56.42495 2276.1001
-27.987534 56.334263 2276.3899
-25.057899 55.987499 2277.75
133.31451 55.528049 2277.1001
-29.6987 59.172752 2275.8101
-27.000999 58.509048 2276.6201
-25.30245 58.650101 2277.845
132.38576 59.399776 2276.2151
-32.704601 62.4874 2276.1001
-29.959326 61.833851 2276.155
-26.8318 62.393463 2277.8301
-25.547001 61.312698 2277.9399
-16.745501 63.889198 2277.1399
126.864 63.9217 2275.8301
131.7515 62.818501 2277.21
-33.585598 65.390465 2276.46
-30.333252 65.373802 2277.0325
-26.75515 64.785851 2277.9551
-24.108801 65.016701 2278.29
-20.441401 65.3582 2276.75
-17.7924 65.589249 2277.0898
126.699 65.718697 2275.8999
132.151 65.311577 2276.3999
-38.652901 69.129898 2275.6699
-36.806099 68.395752 2275.865
-34.235153 68.603127 2277.4575
-31.4918 67.951302 2277.51
-18.908701 67.2714 2278.04
126.22099 68.386154 2277.48
132.623 69.193321 2276.9924
-250.80499 73.153297 2276.71
-38.897652 71.794052 2275.7651
-36.309952 72.004196 2277.1074
125.897 71.069504 2278.0701
132.05 72.061646 2276.3101
-250.965 74.901199 2276.78
-247.491 75.2043 2277.22
-39.22385 75.346252 2275.895
-36.636002 75.554298 2277.2349
130.608 76.421402 2276.3301
131.314 74.380096 2276.74
-241.5705 77.482651 2278.0649
-163.76601 77.476601 2277.6499
-162.17999 79.387398 2277.9399
-39.550098 78.898453 2276.02
-37.228931 78.782967 2277.3132
-34.2342 78.447701 2277.6699
130.42168 78.030006 2277.1367
-248.2775 82.652603 2277.405
-42.605801 83.107697 2275.8398
-40.706451 81.472397 2276.5049
-36.8582 81.200996 2277.4734
-33.5966 81.187302 2277.8774
-30.950249 81.418106 2278.22
130.625 80.220444 2276.1548
131.31799 82.254395 2277.23
-247.97002 85.093727 2276.6768
-46.381001 85.463951 2275.48
-42.797401 84.869598 2276.405
-40.0975 84.198807 2277.2148
-38.251701 83.465202 2277.4099
-31.194799 84.080704 2278.3201
130.47667 85.446198 2276.2136
131.554 84.1987 2277.52
-245.58635 88.409996 2276.6233
-46.295334 87.551636 2275.9299
-43.084072 87.510468 2277.2524
-40.399899 86.831902 2278.3101
127.291 88.888 2275.4199
129.174 88.680397 2276.8401
-244.94568 91.391335 2277.3733
-49.518299 90.561249 2275.335
-46.897675 90.776321 2276.175
-43.452049 91.036194 2278.1274
127.468 91.398346 2277.3999
-244.336 94.463966 2276.7168
-48.961899 94.190453 2275.575
-46.893368 94.062965 2276.1633
-44.044567 94.263 2278.2068
124.792 94.507004 2278.1001
124.852 93.945702 2276.4099
-251.382 97.812798 2276.8
-243.726 97.536697 2276.0601
-240.58051 97.758202 2277.0449
-236.4165 98.151505 2276.96
-233.269 98.3825 2277.95
-230.063 99.114998 2277.6899
-71.594002 96.564903 2276.9099
-68.89035 96.84845 2275.7451
-65.774529 98.306396 2276.3667
-48.405548 97.819656 2275.8149
-45.812801 98.014526 2277.155
123.76775 97.317154 2276.635
-250.49101 100.8288 2277.0535
-233.15199 99.375603 2275.46
-228.612 101.36 2276.7351
-64.875 100.723 2277.9399
-63.0247 100.952 2276.1599
-48.73175 101.372 2275.9448
-46.057297 100.677 2277.2549
121.7435 100.80099 2276.145
-251.91049 103.914 2277.53
-228.12199 103.932 2275.6201
-225.99001 104.005 2277.6899
-62.722931 103.94733 2276.6799
-47.129601 103.302 2276.2349
119.07 103.929 2276.8401
-254.084 108.155 2276.95
-252.198 107.39 2278.1599
-225.4995 106.57899 2276.5649
-61.831749 107.315 2276.615
-46.877064 107.215 2276.1133
114.03751 107.209 2275.28
115.458 107.174 2276.8201
-256.13348 110.671 2275.8101
-254.325 110.7785 2277.05
-252.519 110.886 2278.2852
-225.97 109.473 2275.29
-222.71201 110.093 2277.145
-62.157547 110.863 2276.74
-46.044098 110.5385 2277.2148
-44.307098 110.6705 2277.9448
113.31333 110.51933 2276.49
-256.4545 114.171 2275.9351
-254.06334 114.05133 2276.8965
-251.089 113.705 2277.5901
-249.351 113.857 2277.8101
-223.18201 112.988 2275.8601
-219.442 113.4575 2277.8052
-64.371902 115.098 2277.6799
-62.356998 113.57 2275.8401
-46.2887 114.158 2275.845
-43.980968 114.00666 2277.47
110.525 113.92924 2277.0574
113.314 113.457 2276.49
-253.1705 116.249 2275.9351
-250.88867 116.75067 2276.0764
-248.45 116.322 2277.3699
-246.196 117.658 2278.3799
-64.490997 116.919 2276.74
-43.591633 116.44167 2277.2966
108.779 117.069 2275.6699
110.658 116.845 2277.1101
113.148 115.254 2276.5601
-246.48399 119.506 2276.4199
-64.735451 119.58 2276.8301
-44.9846 119.668 2275.7651
-42.721966 120.11267 2277.2434
110.306 120.30775 2276.8
-241.56549 122.639 2276.1699
-239.25 123.11667 2276.8167
-236.36301 123.919 2277.8899
-211.69501 124.0175 2276.4551
-65.061295 123.128 2276.96
-63.290798 124.271 2275.22
-45.202 122.36 2275.3601
-42.661076 123.4545 2276.2324
110.38175 123.12425 2276.3425
-241.03175 126.2325 2276.1523
-238.40451 126.447 2276.74
-235.79199 126.675 2277.0801
-233.25999 127.779 2277.45
-211.25999 126.105 2276.5801
-209.862 127.88451 2276.8701
-65.387146 126.676 2277.0901
-63.53545 126.936 2275.3101
-41.9939 126.224 2275.9399
-40.3423 126.273 2278.1699
110.37775 126.76151 2276.9299
-240.44701 128.979 2275.6001
-237.8045 129.179 2276.4399
-235.16299 129.379 2277.28
-233.42101 129.53101 2277.51
-208.463 129.66701 2277.1599
-65.713051 130.224 2277.2148
-63.780201 129.60001 2275.4099
-42.1572 128.002 2276
-39.948437 129.35733 2277.0168
110.3875 129.48225 2276.3499
-233.71951 132.21649 2276.5901
-208.134 131.394 2276.4099
-206.84 132.817 2275.8201
-204.69901 132.933 2277.8999
-65.957397 132.88499 2277.3101
-63.943298 131.37601 2275.47
-39.774799 131.84601 2275.4751
-36.298149 132.09799 2276.925
-33.667149 133.276 2276.3
-31.303335 133.166 2276.9268
-27.461399 132.869 2278.0649
109.7645 132.991 2277.365
-234.9695 135.70551 2275.5898
-232.271 135.8455 2277.4448
-203.7215 135.3775 2276.855
-66.1203 134.659 2277.3701
-23.888149 135.12849 2275.585
-20.416599 135.3795 2277.04
108.269 136.71834 2276.99
109.097 134.80499 2276.0901
-234.974 138.94701 2275.7434
-232.06667 139.724 2277.1501
-228.345 140.638 2277.6602
-202.744 137.823 2275.8101
-200.543 138.45 2276.6299
-197.6925 139.798 2277.1602
107.6735 139.28951 2276.095
-225.01651 141.91251 2276.615
-222.41301 142.15649 2276.7024
-219.47534 142.11235 2277.1499
-216.35449 143.51801 2278.2749
-195.74699 141.95399 2276.27
-193.48399 143.09599 2275.8301
-189.407 142.638 2278.25
107.339 142.297 2276.8733
-218.45749 146.16 2275.6201
-216.608 145.40149 2276.3149
-213.095 145.67349 2277.27
-192.186 144.539 2275.24
106.39066 145.29466 2276.8801
-217.85001 148.905 2275.3201
-216 148.14551 2276.0151
-213.37 148.35699 2276.6074
-210.17101 148.89034 2277.6201
105.901 149.0085 2276.5701
-218.0925 151.5405 2275.4099
-215.47224 151.76924 2275.75
-212.85251 151.9975 2276.085
-210.22202 152.20926 2276.675
-206.71924 152.49673 2277.3774
-179.46201 151.49899 2276.75
106.17767 151.36967 2277.0667
-212.08101 155.97766 2275.3601
-209.64301 155.009 2275.6201
-207.022 155.237 2275.9551
-203.73833 154.884 2277.0203
-180.30551 154.92551 2276.26
-178.914 153.983 2277.77
106.68066 155.14633 2277.1001
-213.461 158.22 2275.3
-203.79773 158.23399 2275.7424
-200.56734 158.70399 2277.5969
-180.18201 158.058 2275.9299
-179.00101 158.505 2277.8601
106.2025 158.77249 2276.5
-199.67799 161.272 2276.1499
-197.85899 161.27699 2278.3899
-179.46851 161.414 2276.5601
105.613 162.026 2276.6599
-196.99068 163.89766 2276.2698
-194.722 165.172 2277.96
-178.96899 164.037 2275.4199
-175.68201 164.7935 2277.2998
-1.478557 166.01849 2276.8149
1.18178 166.25101 2277.1499
104.542 165.492 2276.8799
105.886 163.726 2276.1001
-196.78 167.81299 2275.8101
-194.12299 167.96425 2277.1523
-191.58099 169.073 2277.52
-175.181 167.42101 2276.1599
-171.939 168.32899 2275.8701
-168.696 169.242 2275.5801
2.9553399 166.405 2277.3799
4.7289 166.56 2277.6101
7.3892403 166.79199 2277.9502
10.0496 167.024 2278.29
104.04433 167.92433 2276.6267
-196.14799 170.53 2276.0149
-193.62 171.6795 2275.8799
-191.25465 171.57634 2276.3367
-187.3705 171.2135 2278.1499
102.91451 171.9425 2276.3999
-190.216 172.905 2275.8601
-187.65627 173.97475 2276.73
-184.47833 174.56201 2276.9834
-181.59801 175.34801 2278.05
-158.408 174.524 2275.73
-155.282 174.438 2278
-4.7161002 173.004 2275.73
-1.7863332 173.88399 2275.8035
1.453928 174.479 2276.0601
5.0041504 174.7885 2276.52
8.2714376 174.761 2277.0935
11.2553 174.397 2277.78
13.9172 174.6295 2278.125
101.58234 175.02068 2277.1135
-184.43851 177.0455 2275.7649
-180.99101 178.14926 2277.2524
-155.61833 177.90565 2277.1633
5.7722301 177.668 2275.24
8.7592268 177.30333 2275.9268
11.140499 177.1985 2276.385
13.804775 177.431 2276.73
101.604 177.62801 2276.99
-181.28351 180.96149 2275.3301
-178.60699 181.02 2277.6799
-154.66101 181.00768 2276.5332
17.24745 180.54649 2275.7949
20.662949 180.7305 2277.74
101.53149 180.40149 2276.2148
-177.679 183.558 2276.9099
-175.451 184.936 2277.25
-152.2995 184.121 2277.0151
20.63855 182.64551 2276.3149
23.756332 184.09367 2277.1067
99.193802 182.899 2277.99
99.528999 184.035 2275.71
-174.84476 187.76875 2276.2026
-172.10899 187.005 2277.77
-150.71399 186.877 2276.915
24.8496 186.698 2276.02
27.079233 188.06866 2276.6965
91.960098 187.595 2278.3601
93.880096 187.839 2277.6001
96.709602 186.754 2277.54
-171.17 189.51701 2277.3301
-168.0705 191.00299 2277.4502
-148.263 188.998 2276.0801
-146.953 190.504 2275.46
-142.19101 190.94 2277.5898
31.119699 189.62367 2277.2734
33.4146 191.05299 2277.29
90.871552 191.19949 2277.385
94.658005 190.8125 2276.5449
96.156197 189.754 2276.8401
-168.2675 192.95151 2275.5
-165.14301 194.31633 2276.96
-142.16901 193.73801 2276.3501
31.488499 193.67349 2276.1699
33.8004 194.14833 2276.8135
78.679298 193.59801 2278
81.547302 193.96851 2276.8599
84.419403 194.339 2275.72
87.895401 192.672 2278.0901
89.945702 193.009 2276.3501
92.847397 194.91499 2276.23
-164.205 196.86501 2276.1899
-162.436 196.924 2277.4199
-141.83 195.515 2275.5801
-138.52451 196.362 2277.4702
34.0121 196.6855 2275.615
37.471001 196.903 2277.0649
47.2598 197.757 2278.3201
50.204552 198.2245 2276.1899
54.655998 196.67999 2278.1799
72.997803 196.72099 2277.4399
75.818199 196.1035 2277.2549
77.791451 196.39749 2276.0049
80.680298 195.825 2275.3301
91.989594 196.496 2276.9502
-161.50067 199.507 2276.3132
-158.29974 200.0015 2277.5774
-137.84549 199.92101 2275.925
-135.511 201.039 2277.6599
38.299599 198.866 2276.25
40.050098 199.96451 2276.0151
42.722099 200.19775 2276.3599
46.033367 200.19966 2276.6067
49.202999 199.98801 2275.6399
52.933601 198.505 2276.04
55.293262 199.34167 2276.0369
59.28875 199.14349 2275.845
62.832676 200.40001 2275.845
65.509399 200.6335 2276.1899
68.208351 199.92149 2276.9951
72.128441 199.66066 2277.47
89.028046 200.5985 2276.5601
90.167702 198.513 2277.8
-155.054 203.15149 2276.115
-134.02701 203.453 2276.655
47.255402 201.62601 2275.48
68.163696 201.8125 2276.075
71.794952 202.172 2276.0349
86.8629 203.701 2277.1899
-151.69901 205.17551 2277.1299
-148.355 207.349 2276.6401
-133.51801 206.127 2275.49
-130.2065 206.9985 2277.3901
86.175201 205.86301 2276.76
-147.644 209.295 2275.8101
-145.00351 209.42349 2277.155
-129.696 209.677 2276.22
-127.528 209.918 2278.3501
84.916832 209.08867 2276.7998
86.665398 209.892 2277.3701
89.800598 210.582 2277.29
-144.293 211.474 2275.3201
-142.05467 212.75468 2276.6702
-139.17799 213.495 2278.0701
-128.967 213.1035 2276.875
90.214157 213.16499 2276.45
-141.10001 215.32001 2275.8999
-138.543 216.4355 2276.2749
-136.785 216.483 2277.5049
-134.229 217.597 2277.8701
-128.45599 215.78101 2275.71
-126.287 216.02901 2277.8401
90.596703 216.037 2276.48
-138.817 219.7775 2276.4648
-136.14799 219.32001 2276.71
-133.51151 219.49701 2277.5449
-127.2395 219.08301 2276.4399
-145.244 223.549 2275.74
-135.19 221.89134 2275.9399
-132.8725 222.33701 2276.75
-131.196 223.32001 2277.51
-145.347 225.29901 2277.0752
-132.31775 225.95425 2276.9951
-145.32899 228.07401 2275.8501
-132.56 228.6665 2276.585
-97.040054 229.4205 2278.0151
-94.313797 228.76401 2278.3201
-80.104698 230.33501 2277.1399
-78.139503 228.825 2276.3
-76.172096 227.313 2275.47
-131.838 230.62801 2275.76
-129.604 231.89966 2277.1067
-126.725 232.745 2277.51
-96.911568 231.63 2277.1267
-93.971199 231.88666 2277.5066
-91.085098 232.735 2277.8999
-81.116653 232.14999 2276.0898
-78.267303 230.717 2275.3701
-123.358 234.94 2277.02
-120.7165 235.1705 2277.3599
-117.194 235.478 2277.8149
-113.6715 235.785 2278.2649
-105.727 236.59399 2278.28
-100.78067 234.79533 2277.4666
-97.486153 234.946 2276.4551
-93.949623 235.28299 2276.6575
-90.740501 235.86133 2277.0867
-88.668304 235.68701 2277.8398
-82.164101 233.851 2276.04
-116.45 237.563 2275.99
-113.80499 237.793 2276.325
-110.2785 238.101 2276.7798
-106.7525 238.40851 2277.2351
-104.0155 237.81149 2277.04
-101.3535 238.13126 2276.6326
-97.800278 238.55725 2276.085
-94.275902 238.83549 2276.7874
-91.012329 238.82133 2277.1934
-88.0159 238.48599 2277.55
-85.278427 237.85876 2277.6074
-105.995 240.49899 2275.4099
-103.347 240.73001 2275.75
-100.699 240.961 2276.0901
-98.027145 241.31201 2275.4302
-94.507797 241.56 2276.385
-90.641472 241.24133 2277.3533
-87.377899 241.22751 2277.7576
-84.698196 241.57849 2277.1001
82.241402 15.0083 2279.0649
84.903297 15.2405 2279.4099
87.432999 15.48495 2280.7451
90.980148 15.79435 2281.1951
95.100494 14.2803 2278.615
113.85 13.0438 2278.47
117.937 14.19905 2279.9199
119.212 15.2474 2278.3999
75.577103 18.0483 2279.3899
78.319183 17.387875 2279.7002
81.802055 17.702826 2280.6526
84.461601 17.934799 2280.9951
94.595703 16.097801 2281.1602
98.199753 17.28825 2280.655
100.508 17.154135 2279.4199
103.46133 18.004833 2279.4932
117.789 17.433601 2280.855
119.0635 18.479851 2279.3301
36.379501 21.894451 2278.7351
39.918301 22.20315 2279.1851
52.691849 21.48555 2278.7251
56.234848 21.794601 2279.1802
59.894001 22.0952 2278.6401
62.552799 22.327101 2278.98
69.311104 20.512766 2279.4001
72.485603 20.5068 2280.635
75.162804 19.8524 2281.4399
104.238 20.504801 2281.05
107.26 20.713951 2278.9199
117.672 20.389099 2280.95
119.893 21.370399 2280.1299
122.113 22.347799 2279.3201
27.18985 23.80065 2278.6875
30.701624 24.110825 2279.3899
33.860935 24.104965 2280.8799
36.8946 23.766899 2280.8999
39.545601 23.99815 2281.2451
43.457199 22.511801 2279.645
46.996002 22.820499 2280.095
49.650101 23.052 2280.4399
52.304199 23.283501 2280.7749
65.211548 22.559 2279.325
67.749496 22.799 2280.6599
106.79875 23.408926 2280.5
109.671 24.5214 2278.8899
121.076 23.252399 2281.1399
122.838 24.120201 2279.5498
22.2659 27.8682 2279.28
24.06715 27.135799 2279.97
26.401634 27.048065 2280.76
30.283051 26.789501 2281.2351
110.54067 27.014633 2279.7932
113.863 28.48625 2279.1001
123.42225 27.089874 2280.3826
7.5513101 31.9722 2278.6499
11.2471 30.503201 2279.04
14.215367 30.168768 2279.7302
17.464975 30.155523 2280.3025
20.99655 30.463573 2280.7551
23.7745 29.8046 2280.5601
113.47749 30.281898 2280.645
116.293 30.5109 2280
125.53 28.975849 2279.3301
129.28549 30.798649 2279.7227
5.6217799 33.595299 2278.49
8.5045538 33.262199 2280.1765
11.500667 32.926769 2280.53
14.5265 32.5909 2280.5601
117.16 33.001865 2280.8967
119.672 34.3993 2279.6001
132.44025 33.703049 2279.9399
5.2923203 36.26125 2279.5801
7.5871835 36.170765 2280.8701
117.429 36.0354 2281.4099
120.589 36.890102 2280.1633
123.055 38.292099 2279.1899
133.968 36.578899 2281.47
135.485 36.837566 2279.8098
-5.8702402 41.553699 2278.4399
2.1949351 40.469353 2279.8999
4.1227598 38.847702 2280.0601
120.807 39.924702 2281.01
122.89 40.0839 2279.26
136.55701 39.542202 2279.3801
-4.8021336 42.840435 2278.6367
-1.5386132 42.826748 2279.0425
1.9297911 43.131653 2280.2449
123.5345 42.849174 2279.4651
136.461 42.941402 2279.9399
-8.1248703 46.7281 2278.4099
-5.3954048 46.07095 2278.7151
-1.8850797 46.377373 2279.4175
1.316317 46.359497 2280.5732
123.05251 46.426903 2280.585
136.041 46.463634 2280.5432
-7.5448823 49.463402 2279.365
-4.3567867 50.039631 2280.04
-1.95013 49.653103 2280.3232
122.997 49.733334 2281.0732
129.50301 49.6791 2278.52
132.68399 50.473148 2278.915
135.735 49.005447 2280.1951
-23.198601 54.3559 2278.9099
-17.6749 53.052898 2278.53
-15.02855 53.283749 2278.865
-11.5001 53.591549 2279.3198
-7.9285426 53.006676 2280.2427
-4.4011078 53.314377 2280.6951
-1.71437 52.6534 2281.5
134.21867 52.587967 2279.8435
-23.361601 56.129902 2278.98
-20.6353 55.473602 2279.2825
-17.108898 55.781197 2279.7351
-13.952567 56.350872 2280.8269
-11.5233 55.968536 2280.7766
-8.2114296 55.6632 2280.835
-4.68503 55.970802 2281.29
-1.8773 54.427399 2281.5701
133.68201 56.458347 2280.3823
-23.605949 58.790901 2279.0701
-20.961151 59.021603 2279.4126
-17.43475 59.329197 2279.865
133.10699 59.315399 2279.71
-23.93185 62.339001 2279.2
-21.28705 62.569702 2279.5374
-18.027367 62.556 2279.9434
132.15334 62.114834 2279.4434
-27.08285 66.516899 2280.5149
-23.59325 66.815399 2281.4702
-22.344601 65.170601 2278.52
-14.323975 64.975555 2279.5073
-11.8338 66.076599 2280.8799
131.89801 65.595856 2280.03
-30.551733 69.198868 2279.71
-27.359575 69.166054 2281.1123
-24.717899 69.396454 2281.45
-17.214899 67.407303 2279.26
-14.6415 67.619904 2280.605
132.29134 68.830635 2280.5234
-33.185764 72.553871 2278.8699
-30.823133 72.153862 2279.8132
-27.951468 72.388969 2281.1902
-24.962 72.054398 2281.55
130.987 73.2743 2278.97
132.14999 71.327148 2280.1499
-254.46201 76.298698 2278.4199
-252.09534 75.918571 2278.7
-249.257 76.7528 2279.0901
-205.554 75.391502 2280.4299
-165.30499 75.496498 2280.3999
-33.436367 75.5177 2278.6399
-30.507099 75.160103 2280
-27.559835 74.810364 2281.0198
130.57401 74.853149 2280.4448
131.254 74.9384 2278.4199
-247.522 76.904198 2279.3201
-244.98199 77.155396 2278.635
-238.10849 79.469749 2281.115
-206.645 77.92865 2280.915
-164.68201 78.218048 2280.1001
-32.451 77.689957 2278.865
-29.822376 77.914703 2279.4551
-27.19425 78.139404 2280.0449
-24.583799 78.357468 2280.885
-21.380301 78.934807 2281.3101
130.59149 78.650497 2280.2676
-243.655 82.204201 2280.74
-161.44049 81.169151 2280.135
-157.96051 81.500305 2279.575
-155.341 81.728798 2279.9099
-29.186001 81.572006 2278.4448
-26.589298 81.783051 2279.5374
-23.96085 82.007004 2280.125
-21.628832 81.898834 2281.0833
130.991 81.147995 2279.4502
131.228 83.0923 2279.75
-244.74968 85.273766 2280.0566
-38.473801 85.211601 2278.47
-36.629101 84.478401 2278.6699
-33.984325 84.709106 2279.0076
-30.1698 85.347328 2279.1768
-26.96435 85.309723 2280.4126
-23.323601 84.744904 2280.335
-20.678801 84.975601 2280.6699
131.168 83.650902 2281.4299
131.464 85.036606 2280.0498
-244.55151 87.847099 2280.29
-39.391567 88.086792 2279.5034
-36.4949 88.322472 2280.5466
-34.07143 87.946632 2280.4968
-31.134867 88.202797 2280.8733
-23.554399 86.489548 2281.395
130.21034 87.803368 2279.2668
-244.92 91.0896 2279.885
-40.013149 91.295555 2280.0825
-36.519699 91.586731 2281.0349
-33.263832 91.573036 2281.4402
127.378 92.238701 2279.9299
129.05299 89.799698 2280.21
-256.15601 95.468201 2280.1299
-254.422 95.619499 2280.3501
-252.10133 95.263527 2279.9534
-244.32901 93.997749 2279.6401
-242.03999 94.900902 2281.3301
-239.797 95.945 2280.9199
-42.977699 95.548203 2278.3999
-40.338699 94.840446 2280.2075
-37.111568 94.809631 2281.1133
-34.122101 94.474998 2281.47
124.702 95.3489 2280.635
-256.31601 97.212997 2280.1899
-254.582 97.364304 2280.4199
-248.87932 97.359406 2279.1067
-242.883 96.219299 2278.6899
-237.552 96.992798 2280.51
-234.347 97.717003 2280.26
-230.17999 98.1203 2280.1799
-226.972 98.856796 2279.9299
-69.196701 98.4944 2279.3149
-43.250252 98.190849 2279
-40.553699 97.517052 2279.8049
-36.741501 97.223473 2281.2734
-34.284901 96.247002 2281.53
123.77467 98.003265 2279.8066
-247.951 100.62495 2280.385
-226.0015 101.2685 2278.885
-222.9095 101.0173 2281.1299
-68.623596 101.1685 2281.0249
-66.802353 101.379 2279.75
-42.641548 100.909 2279.7051
-40.477131 99.9067 2279.9299
-37.273624 100.48397 2280.3525
121.974 100.89349 2279.74
-250.073 104.0055 2279.27
-248.2715 104.117 2280.51
-222.73401 104.6175 2279.5549
-219.476 105.235 2281.4199
-65.184204 103.3215 2279.54
-45.474152 103.377 2278.46
-42.871803 103.5785 2279.5525
-39.682301 104.14633 2280.2266
-37.517899 103.1435 2280.4502
117.979 105.447 2280.3701
119.816 103.545 2279.5249
-250.394 107.4995 2279.3999
-248.5925 107.608 2280.6401
-222.242 107.196 2278.4299
-218.98401 107.817 2280.2949
-63.727699 107.0375 2279.3901
-45.718498 106.038 2278.5601
-43.169426 107.14575 2279.1775
-39.687126 107.42226 2280.3826
114.397 108.4125 2279.51
-250.7485 111.01601 2279.0151
-248.83299 110.227 2280.73
-219.453 110.718 2279.01
-215.2305 111.031 2281.0449
-64.1343 111.464 2279.55
-63.971699 109.694 2279.49
-42.599449 110.781 2279.1699
-39.998398 110.979 2280.2576
111.7565 111.27499 2279.355
-247.93335 112.686 2280.2866
-215.7 113.934 2279.76
-65.552765 113.693 2280.1501
-40.228348 113.65 2280.105
110.056 114.033 2279.9199
-244.80299 116.49801 2280.52
-241.96301 117.333 2280.9133
-209.853 117.4005 2280.4551
-68.2257 116.376 2281.29
-66.3396 116.671 2278.51
-40.458298 116.322 2279.9526
110.43125 116.85101 2279.9502
-244.618 119.559 2278.6699
-241.8875 119.6875 2281.0349
-239.283 119.914 2281.3701
-208.71249 120.702 2279.0249
-66.605003 119.304 2279.1099
-40.429234 119.628 2279.5198
110.159 119.38733 2278.9832
-237.825 121.914 2279.6299
-235.2975 123.017 2279.9902
-232.715 124.066 2281.3701
-203.67 122.628 2280.3899
-66.912697 121.886 2280.71
-39.317749 123.5965 2279.9326
-36.828602 124.65 2281.55
110.21275 122.88525 2280.135
-232.198 126.8715 2279.5549
-229.61501 127.92 2280.9299
-208.158 125.903 2278.8301
-201.83299 126.514 2280.8101
-38.635899 126.374 2279.3899
-36.931599 126.475 2280.6201
110.96575 126.4495 2279.8499
-231.57001 129.57201 2279.76
-228.93399 129.772 2280.6001
-205.35899 129.47301 2279.4099
-203.21899 129.58701 2281.5
-38.740101 128.203 2278.46
-36.219173 129.28149 2279.5774
-33.587749 129.49899 2280.165
-30.941401 129.73 2280.51
-27.46195 130.9525 2280.4951
110.87699 129.97267 2279.49
-231.866 132.2545 2278.8401
-230.0985 132.37799 2279.5649
-205.02901 131.203 2278.6599
-202.724 132.185 2280.365
-24.028099 133.0925 2280.0149
110.022 132.795 2280.1401
-230.47301 136.724 2280.23
-230.312 134.974 2280.1699
-202.228 134.783 2279.24
-200.933 136.214 2278.6399
-197.17751 136.75349 2280.6001
-17.05665 135.543 2279.99
107.9765 136.631 2280.4951
-230.634 138.474 2280.3
-228.894 138.62601 2280.52
-226.28549 138.8535 2280.855
-222.83099 139.1875 2280.7949
-219.39951 139.55249 2280.2349
-215.89499 139.825 2281.1851
-213.284 140.05299 2281.52
-195.23199 138.909 2279.71
-193.935 140.34801 2279.1201
-11.88195 137.81299 2280.2351
-4.0922198 140.285 2281.3201
-2.3248701 140.439 2281.55
107.38033 139.20233 2279.6067
-216.14749 141.70099 2279.2251
-213.075 143.17 2279.3401
-210.168 143.923 2281.0801
-191.67101 141.491 2278.6799
-187.595 141.032 2281.1001
106.204 142.1725 2280.3
-209.49951 145.81601 2280.2451
-206.84599 145.979 2281.5901
104.78149 146.67151 2280.3201
106.128 144.922 2279.54
-208.83099 147.711 2279.4099
-206.30675 148.83325 2279.5249
-203.72301 149.854 2281.1599
-176.36349 148.586 2280.23
104.403 148.01199 2280.96
105.6735 149.01401 2279.4199
-203.07001 151.78601 2279.8149
-177.20651 152.0195 2279.74
106.02 152.13126 2280.3025
-202.37801 153.651 2279.49
-200.13533 154.97766 2280.5
-177.11633 155.744 2279.8499
100.31 153.87199 2278.8101
106.428 154.679 2279.4702
-199.24699 157.53799 2279.05
-196.99268 158.84001 2280.4001
-176.851 158.66499 2279.97
105.838 157.9285 2279.6299
-196.07899 161.355 2279.6201
-194.3 161.433 2280.8601
-176.35001 161.2915 2278.825
-172.09399 161.76401 2280.8701
103.85934 161.26701 2280.4365
-193.39532 163.97633 2279.7466
-191.164 165.325 2280.4199
-171.59201 164.3965 2279.7251
20.948099 166.243 2278.6001
22.628401 166.32201 2279.8201
103.105 163.92999 2279.5649
-190.26666 167.89799 2278.9766
-187.05649 168.379 2280.575
-184.532 169.52499 2280.4399
-169.15199 166.466 2278.8999
-164.939 167.10001 2278.77
-151.444 167.741 2281.1101
-1.6969818 168.78633 2279.9399
1.3083053 168.45 2280.3
5.1988101 168.19101 2280.77
7.8544898 168.422 2281.1101
10.947814 168.16234 2280.4766
14.4835 167.41049 2278.865
17.971699 168.6315 2279.1025
21.53055 167.991 2280.27
102.0345 167.40149 2279.79
-183.87299 171.51849 2278.6001
-181.22501 171.66701 2279.9399
-153.67799 172.116 2279.0901
-151.79901 171.0495 2280.6948
-4.86587 170.90401 2279.6499
-2.2101898 171.1355 2279.99
1.6803226 170.87634 2280.46
4.9534101 170.86275 2280.8674
8.4943151 171.17151 2281.3225
17.611351 171.21049 2280.4399
20.352001 170.55051 2280.75
100.79266 171.04366 2280.3235
102.444 169.95799 2278.95
-183.16 173.354 2278.77
-180.29167 174.16801 2279.5066
-178.05299 175.489 2280.52
-153.125 174.629 2280.1201
17.36565 173.8855 2280.5349
20.024399 174.11749 2280.8799
99.89415 174.3595 2280.24
-178.3295 178.2525 2279.1001
-153.758 176.673 2279.1899
-151.9165 177.89 2280.845
17.03805 177.45224 2280.665
20.260431 178.03333 2281.0935
23.16 178.88499 2281.49
97.345596 178.772 2281.52
99.475151 178.2 2279.25
-176.742 180.16501 2279.3901
-174.1785 181.1875 2280.7649
-151.896 180.68201 2279.6101
-148.427 182.383 2281.1201
24.02495 180.87201 2280.1802
93.8339 182.11 2281.3601
97.787003 181.0495 2279.8252
-174.14034 183.71834 2279.0432
-171.25835 184.47198 2280.4434
-151.558 182.452 2278.8401
-148.089 184.15601 2280.3501
24.891701 182.86301 2278.8701
27.020365 184.14568 2280.54
91.722801 185.53999 2281.26
95.224625 184.13499 2280.0073
-170.339 187.06799 2279
-167.6875 187.16351 2280.845
-145.79266 187.256 2279.0732
-142.166 187.998 2281.0249
28.114799 186.745 2279.46
89.776299 187.177 2281.0901
93.762901 186.85901 2279.2349
-167.8745 189.05899 2279.3999
-164.77266 190.51367 2279.8535
-139.056 190.89099 2279.8701
34.787701 190.84801 2281.49
81.136002 191.7655 2281.2451
87.796799 190.69701 2280
90.769852 189.2245 2279.2949
92.925598 189.909 2279.52
-163.836 193.056 2279.0801
-161.276 194.07425 2280.4575
-139.034 193.69299 2278.6299
-136.87 193.91299 2280.76
34.826401 192.81599 2279.5701
37.434799 193.965 2279.6978
40.022099 194.12849 2280.7852
41.827599 193.34399 2281.47
47.263 193.89999 2281.1699
50.038147 194.2245 2280.5149
52.7047 194.457 2280.8601
55.37125 194.6895 2281.2051
58.0378 194.922 2281.55
71.903351 194.57251 2280.2251
75.401901 193.75468 2279.6167
84.957748 192.25751 2279.7251
91.663506 193.10966 2279.5701
-160.65601 196.88699 2279.6599
-158.0175 197.02151 2281.0049
-155.39101 197.25 2281.3401
-136.3605 196.58499 2279.6001
-133.05299 197.44 2281.5
40.036499 197.043 2278.3999
42.680904 196.28801 2279.7026
46.003567 196.30467 2279.78
50.093899 196.19901 2278.605
52.763599 196.43201 2278.9399
56.436798 196.836 2278.4099
59.108002 197.0685 2278.7549
62.669601 197.3795 2279.2151
66.231247 197.69 2279.6699
68.902496 197.923 2280.01
70.765549 197.1825 2280.21
89.555 195.64999 2280.6599
89.830399 197.37 2280.0901
-154.77925 200.187 2279.2849
-151.349 201.30099 2280.5249
-148.717 201.48199 2281.3601
-135.851 199.257 2278.4399
-132.54199 200.117 2280.335
88.177299 199.961 2279.79
-151.522 203.21149 2279.075
-148.88499 203.343 2280.4199
-130.8875 203.42801 2278.9399
-126.602 204.043 2281
85.667648 204.144 2280.2151
87.488899 202.12 2279.3601
-148.179 205.33249 2279.085
-145.711 207.377 2278.99
-143.077 207.5065 2280.3301
-126.0905 206.7265 2279.835
84.694366 206.83699 2280.0198
-142.364 209.44901 2279.5
-120.314 209.79001 2280.885
83.436096 210.065 2280.0701
87.535751 210.319 2279.855
-139.89401 211.54749 2278.8999
-136.784 212.90266 2280.3601
-124.677 213.739 2278.9299
89.845451 212.30899 2279.6201
-135.82899 215.464 2279.5901
-133.21066 216.01033 2280.0667
-130.728 217.584 2281.3401
87.994698 214.63499 2281.3401
-132.47501 217.644 2279.1001
-129.661 218.97066 2280.5234
-139.511 221.024 2279.26
-129.924 222.06067 2279.2932
-127.617 222.4135 2280.9399
-77.793198 223.052 2280.1101
-129.13332 226.25134 2279.9268
-126.74167 225.79199 2280.8733
-100.05753 225.47833 2281.1533
-97.656502 225.51801 2280.2749
-95.009254 225.77625 2280.365
-92.469704 226.808 2281.49
-78.652199 225.95769 2280.1399
-129.05649 228.63351 2280.0498
-126.421 228.864 2280.3899
-103.376 229.315 2281.26
-100.61122 228.88675 2279.5625
-97.864304 228.34399 2278.8701
-91.710846 228.8255 2280.165
-88.202255 229.07599 2281.115
-84.66375 229.4395 2281.0698
-81.263496 228.74699 2279.6067
-128.341 230.478 2280.23
-125.46133 231.39967 2279.9568
-123.142 231.9375 2279.9299
-120.505 232.16727 2280.27
-117.313 232.70467 2281.03
-114.433 233.588 2281.0901
-110.754 232.12601 2281.48
-107.22 232.548 2280.9299
-104.49475 231.92201 2280.9875
-101.18838 232.18633 2278.9768
-91.831902 230.769 2278.7251
-88.386948 231.9635 2279.2126
-84.852501 232.29974 2279.415
-112.675 233.741 2281.3201
-110.08075 235.119 2279.4375
-106.82533 235.11499 2279.76
-103.823 234.858 2279.45
-87.719704 234.81799 2278.4199
-85.073349 235.04901 2278.76
116.869 15.3794 2282.5801
86.103149 18.10025 2282.2148
87.875153 18.254799 2282.4399
90.682053 17.589901 2282.2549
94.22715 17.8992 2282.71
97.023697 18.1203 2282.0601
117.83734 17.751333 2282.8899
75.759247 21.72065 2282.615
77.933571 20.712934 2282.8367
81.088074 21.297523 2283.7573
84.775146 20.7115 2283.6851
88.710167 20.448999 2283.8301
91.661263 20.706367 2284.2068
93.927147 19.69245 2283.7649
97.526749 20.883251 2283.2627
101.212 21.183475 2282.7275
103.932 22.299601 2282.1101
118.261 19.4967 2284.73
118.558 20.8857 2283.3398
122.18449 21.906651 2284
34.760101 25.4041 2282.73
36.525398 25.5581 2282.96
42.920052 24.317299 2283.1899
46.397453 24.628849 2284.145
49.928047 24.9368 2284.595
55.72905 23.5998 2282.2251
59.2658 23.908298 2282.6851
62.802597 24.216801 2283.135
65.455101 24.4482 2283.48
68.53817 24.106867 2283.1731
71.931305 23.200951 2283.2151
75.344604 23.5173 2284.665
83.596001 22.423901 2284.6299
98.028503 23.643499 2284.46
100.38277 24.441168 2284.46
103.626 24.0924 2283.1599
117.879 22.619301 2282.0901
122.58475 24.404823 2283.1851
27.372801 28.340401 2281.95
29.9708 28.5737 2282.79
33.562099 27.111549 2284.1802
38.2906 25.712099 2283.1899
40.055901 25.865999 2283.4099
41.821201 26.02 2283.6399
66.055748 26.310551 2284.6499
104.63766 26.572767 2283.0735
107.143 27.069901 2282.23
108.908 28.115499 2281.99
124.16267 27.517035 2283.4299
125.602 28.533001 2284.01
24.619001 31.099434 2283.0867
27.896301 30.201 2284.125
30.5411 30.4317 2284.46
32.467201 28.811501 2284.6299
107.85767 30.451767 2283.6536
110.365 30.95155 2282.8149
112.131 31.998301 2282.5801
125.8985 29.917049 2282.6201
128.08701 31.156099 2282.6499
12.4203 34.215801 2282.3899
14.9746 34.44775 2283.7251
17.200068 33.443634 2283.2834
20.389351 34.021378 2283.875
23.03335 34.251999 2284.21
110.861 33.709949 2284.0149
113.899 33.045151 2282.3452
115.667 34.093201 2282.1101
127.051 32.065201 2284.46
129.70265 33.2715 2282.8567
8.5679998 37.4562 2282.0601
11.249874 36.799824 2282.8699
14.81175 36.220749 2283.79
111.429 36.464798 2284.72
113.914 36.9687 2284.0466
116.309 36.851997 2282.3198
119.042 37.979 2281.7
130.716 36.543701 2284.1001
131.855 36.739502 2282.8501
4.7157402 40.696701 2281.74
7.4420047 40.040352 2282.0449
10.58425 40.024067 2283.7766
114.878 39.452499 2284.28
116.79449 40.503201 2283.0552
118.721 40.660549 2282.2949
133.57199 39.951466 2283.6267
135.414 40.088799 2281.9199
5.3529453 43.434601 2281.9451
8.4425735 44.006298 2283.7034
9.6676102 42.924599 2284.48
116.474 43.182098 2283.6499
119.73966 42.850735 2282.3601
135.7515 43.1269 2282.79
2.3008201 47.639 2281.76
5.0270853 46.982601 2282.0723
8.5046597 46.394547 2283.99
117.15325 45.940651 2283.6123
120.081 46.182899 2282.22
135.37134 45.668964 2283.3667
1.15413 50.220947 2281.9976
4.7402201 49.639847 2282.6699
7.9797535 48.73093 2284.2034
117.757 48.696602 2284.0701
120.21734 50.104431 2283.0967
133.63699 51.122501 2284.6499
135.02551 49.192699 2283.04
-0.032815199 52.797699 2282.73
1.72934 52.951401 2282.95
4.4328227 52.292999 2283.51
7.0927901 51.630699 2284.5701
120.435 53.129833 2283.9399
134.03065 52.962433 2282.8167
-8.4896698 57.4188 2282.3999
-0.91874838 55.697536 2283.0901
1.40256 55.599648 2284.05
3.24505 54.867298 2284.24
133.32651 55.634247 2283.4399
-14.05525 59.609749 2282.3149
-11.45105 59.83305 2283.155
-8.6905003 59.184601 2282.9651
-5.1262126 58.599148 2283.8826
-1.857758 58.587696 2284.1199
133.341 59.415253 2283.2625
-14.299351 62.267651 2282.4102
-10.504903 61.9949 2283.8767
123.7 63.6241 2284.51
132.27899 62.45945 2282.655
-20.9515 67.045799 2281.8101
-10.725533 64.95797 2283.3167
123.536 65.411697 2284.5701
131.675 65.601303 2282.8201
-204.914 70.061501 2284.29
-22.9436 68.645203 2282.6499
-20.303551 68.875549 2282.9851
-17.663401 69.105797 2283.3201
-15.023251 69.336151 2283.665
-11.5882 68.46183 2282.7034
123.5955 68.129745 2282.6899
130.90799 68.193947 2284.0901
132.07401 68.094299 2282
-205.153 71.849403 2282.3301
-203.339 71.958702 2284.5801
-166.839 73.523102 2283.1399
-23.187599 71.301544 2282.74
-20.547474 71.531906 2283.0825
-17.907351 71.762146 2283.4199
123.349 70.814201 2282.79
125.853 72.836601 2283.1951
130.571 73.00605 2283.71
131.308 70.688499 2283.28
-203.618 74.600204 2283.6599
-166.99899 75.275299 2283.2
-24.325525 74.789047 2281.7551
-20.838051 75.085281 2282.7075
-18.232601 75.303955 2283.55
130.28767 75.383064 2282.8
-254.20799 77.896103 2284.5801
-247.35699 78.524498 2284.46
-244.85699 78.78875 2283.2651
-241.425 79.103546 2283.2051
-233.743 79.835098 2282.1799
-231.95399 79.960403 2283.4199
-205.795 78.841202 2282.5801
-203.85899 77.220596 2283.75
-167.23199 77.8909 2283.8
-165.58 78.931396 2283.55
-20.1668 77.831001 2282.4199
-17.624725 78.941269 2283.0374
130.25899 78.287201 2283.8
-243.44701 82.9188 2282.48
-212.1535 81.7798 2282.9399
-209.507 81.979897 2284.28
-206.7845 80.487198 2283.5449
-164.63301 81.368904 2283.7834
-161.561 82.843002 2283.2251
-158.96001 83.098503 2282.55
-20.585501 83.174202 2281.6101
-18.731199 81.528503 2282.77
130.73801 81.4328 2283.0874
-243.87199 85.6726 2283.3
-242.28101 83.296898 2284.3799
-161.709 84.567551 2284.2998
-158.15649 84.023003 2283.71
-155.47301 83.402702 2283
-18.9753 84.186401 2282.865
131.078 84.488907 2283.9502
131.375 85.874603 2282.5701
-244.32866 88.515167 2282.7234
-30.111601 89.466499 2281.73
-27.676666 88.479637 2282.3232
-23.78495 88.232201 2282.46
-20.19915 87.645798 2283.1301
130.1535 88.395096 2283.0698
131.315 86.433197 2284.25
-243.81149 90.976547 2283.02
-242.48199 92.209396 2284.55
-30.338301 91.206299 2282.79
-27.372599 90.861061 2283.4832
-24.130424 90.841949 2284.0549
-21.3752 90.203003 2283.8601
127.64 92.051552 2282.665
128.993 90.359299 2281.8899
-250.72701 94.142799 2281.75
-248.09399 94.352203 2282.5898
-241.302 93.224304 2283.105
-239.91299 94.955299 2283.3999
-32.34235 93.709045 2282.665
-30.022667 94.208977 2282.9766
-27.665533 93.800728 2283.9202
-24.755402 94.045372 2284.6335
125.315 94.131699 2283.5801
-247.42 96.188904 2282.26
-245.09967 96.935997 2283.5901
-238.04449 96.524399 2283.7749
-235.3195 97.411049 2283.4551
-232.218 97.7798 2282.3401
-229.12801 97.517502 2284.5801
-227.09 97.860397 2282.4199
-222.92101 98.275703 2282.3301
-219.83 98.022697 2284.5801
-74.663605 97.853195 2283.6499
-71.9543 98.155197 2281.98
-33.260937 97.506866 2282.3933
-30.0275 97.481148 2283.1326
-26.573475 97.752174 2284.5825
122.803 97.803101 2283.1699
-246.056 100.68034 2283.1499
-219.817 100.7682 2283.375
-71.399498 100.80615 2284.1951
-70.360603 100.075 2282.27
-33.826725 100.74426 2282.0549
-30.352751 101.023 2283.2576
-26.849249 101.32075 2283.9575
120.293 101.482 2282.76
-246.424 105.018 2283.8101
-246.26401 103.275 2283.75
-219.80499 103.513 2282.1699
-214.62399 103.49049 2284.375
-69.072144 104.5845 2284.1599
-67.130898 103.955 2281.8501
-36.859699 104.953 2281.6299
-34.136597 104.2975 2281.9326
-30.614349 104.605 2282.385
-27.0439 104.006 2283.3049
118.291 102.824 2284.73
118.62 103.94 2282.48
-246.696 107.654 2283.395
-214.76199 108.125 2282.3301
-214.13 106.08 2283.25
-210.70399 107.576 2284.75
-68.056366 106.78067 2283.5466
-65.617447 106.7595 2282.1699
-36.238426 107.67725 2282.085
-33.643501 107.8765 2283.1699
-30.92205 107.22099 2283.48
-27.565001 106.33533 2283.5203
113.976 108.141 2284.3101
115.812 106.2345 2283.4651
-246.968 110.29 2282.98
-245.172 110.397 2284.22
-210.2095 110.17 2283.625
-67.74115 110.0985 2283.0701
-65.942154 110.295 2282.2949
-36.4977 110.324 2282.4302
-32.722397 110.00134 2284.3967
-30.34985 109.911 2284.6899
111.334 111.003 2284.1699
112.365 110.045 2282.3301
-244.96632 113.42899 2282.71
-209.54999 113.62849 2282.1201
-202.2695 113.888 2284.2798
-68.044754 113.655 2282.7
-36.741753 112.98125 2282.5249
-33.579632 112.9 2284.4268
110.07201 113.94025 2282.7273
-201.77299 116.492 2283.1499
-68.429703 118.097 2282.3601
-37.067127 116.52425 2282.6526
-34.51815 116.6835 2284.49
110.1745 117.14 2283.6401
112.354 118.32 2283.6699
-237.48801 120.016 2282.6101
-235.75301 120.167 2282.8301
-201.11099 119.964 2281.6399
-198.008 119.762 2283.8999
-68.735397 120.6735 2283.9551
-37.392525 120.0665 2282.7776
-34.84325 120.223 2284.615
110.1255 119.5895 2282.0249
113.0785 120.091 2283.905
-234.235 122.116 2282.1001
-231.6275 123.139 2283.9851
-228.265 124.3405 2283.96
-200.27568 123.828 2282.7334
-67.1175 123.605 2281.77
-36.725899 122.826 2282.49
-34.473099 123.58767 2283.4768
113.24175 122.722 2283.1123
-231.138 125.966 2281.6599
-228.506 126.166 2282.5
-225.82201 126.313 2284.3501
-199.58701 126.992 2283.79
-67.361198 126.2575 2281.865
-35.229301 126.576 2281.8401
-33.416748 125.8175 2282.5352
-30.837898 125.99551 2283.875
-28.196999 126.226 2284.2148
107.274 127.1 2284.46
112.83834 126.27767 2282.5066
-227.82401 128.017 2282.1699
-226.089 128.9595 2283.9399
-198.9845 129.95999 2283.54
-67.686096 129.7955 2281.9951
-27.4624 129.041 2282.925
-24.340334 130.50499 2283.3835
110.9775 130.50351 2283.325
112.614 128.29201 2284.46
-228.172 132.3295 2283.3401
-226.3835 132.424 2284.5752
-198.48801 132.564 2282.4099
-197.2515 133.49301 2283.075
-20.588526 132.37201 2282.9302
-17.17955 133.53751 2283.915
110.2795 132.59851 2282.9102
-228.51999 135.8535 2282.9551
-226.22168 136.33699 2283.4365
-222.54649 137.287 2283.2649
-219.25366 136.39967 2283.6335
-215.43649 136.14499 2284.095
-212.875 136.43201 2283.4199
-211.093 136.524 2284.6499
-196.01401 134.424 2283.75
-194.069 136.5795 2282.8599
-13.7071 135.70599 2282.9302
-11.1353 135.879 2284.27
-8.4904699 136.10901 2284.6099
108.582 135.384 2283.48
109.612 134.411 2281.6399
-218.297 137.786 2281.8
-215.68851 138.01401 2282.135
-211.94434 138.88567 2283.3135
-209.71899 140.233 2283.99
-190.02499 139.01251 2281.915
-186.116 137.67599 2284.72
-183.851 138.827 2284.29
-8.5003347 138.002 2282.6851
-5.93051 138.174 2284.02
-0.55752301 140.593 2281.77
1.20982 140.74699 2282
105.251 140.39999 2282.9099
106.916 137.89 2283.2
-211.705 141.95599 2281.8101
-209.03149 142.08951 2283.6602
-206.403 142.285 2284.5
-176.83701 143.037 2284.77
2.8940001 140.84 2283.22
4.6602998 140.994 2283.45
103.77799 142.59132 2283.9102
-208.38499 144.011 2282.3201
-205.498 144.783 2283.7234
-203.286 146.15199 2284.0601
-174.401 145.082 2283.95
103.82851 144.89799 2282.9299
-202.39134 148.67599 2282.9468
-200.16499 150.02299 2283.6201
-174.215 148.73849 2282.3398
-172.382 149.91701 2283.99
102.174 150.10751 2283.27
103.238 148.14301 2283.0901
-199.4745 151.88449 2283.2949
-173.98199 152.25301 2282.8999
99.779602 151.742 2283.6899
103.69601 151.64067 2283.22
-198.782 153.74699 2282.96
-196.54466 155.07066 2283.9766
-174.3405 155.54199 2282.4849
-171.49699 154.168 2284.25
99.450897 155.321 2283.8101
103.87766 155.56 2283.3
-195.655 157.627 2282.53
-193.40633 158.92598 2283.8767
-172.76401 158.254 2282.3999
-165.43401 158.75 2284.5601
103.89767 158.15666 2283.1768
-192.492 161.437 2283.1001
-190.718 161.515 2284.3301
-172.429 160.009 2281.6299
-164.92999 161.39249 2283.405
24.347401 162.61301 2283.8999
102.951 161.172 2283.1899
-189.84265 164.12933 2282.2131
-186.98033 164.942 2282.9434
-184.101 165.703 2284.3501
-181.48749 165.931 2284.6802
-161.35049 164.0715 2282.355
-155.02901 165.036 2282.1699
-152.752 166.248 2281.72
-146.717 165.317 2284.49
24.10215 165.28351 2283.9951
101.03867 164.61168 2283.3367
-183.20702 168.29868 2282.5632
-148.31799 167.651 2283.3899
14.05105 168.963 2281.905
23.856899 167.95399 2284.0901
97.909203 169.37801 2284.05
99.736252 167.396 2283.1899
-179.87898 170.35866 2283.0732
-177.638 171.651 2284.4199
-149.015 170.88399 2283.3533
11.15 171.4035 2281.665
13.805651 171.63475 2282.0049
22.030451 170.627 2281.97
24.2059 170.99901 2283.9365
98.31955 171.94049 2283.21
-176.72034 174.20033 2283.3132
-174.494 175.54601 2283.99
-150.967 174.82201 2282.24
-148.80901 175.017 2284.3701
21.703051 174.1915 2282.1001
24.264524 174.343 2283.4351
26.905199 173.604 2284.74
97.309601 174.881 2283.8899
-176.444 177.31599 2281.8101
-173.793 177.41949 2283.665
-148.78751 177.81351 2283.1299
21.4575 176.86501 2282.2
24.387335 177.74467 2282.2634
27.188433 178.513 2283.6565
97.040894 177.34851 2282.9448
-173.97549 179.26001 2282.7151
-171.427 180.32449 2283.585
-148.765 180.61 2281.8899
-145.4655 181.42799 2283.7949
27.3787 181.013 2282.6201
91.7314 180.806 2284.0601
94.524048 181.48151 2283.3701
-169.942 183.198 2282.8999
-167.40276 184.30499 2283.27
-164.77499 184.4895 2284.1099
-163.117 185.564 2283.8601
-144.957 184.092 2282.6399
-142.797 184.299 2284.77
28.15 182.916 2282.3101
29.741951 183.8765 2283.5601
87.630997 184.883 2284.75
90.378029 184.06902 2283.0366
93.9702 184.48 2282.6699
-164.1745 187.3795 2282.3049
-161.53101 187.474 2284.1499
-159.785 187.62601 2284.3701
-144.619 185.867 2281.8601
-141.485 185.80901 2284.1499
-139.032 187.94449 2283.3101
30.530449 186.75851 2282.2798
