# .PCD v0.7 - Point Cloud Data file format
VERSION 0.7
FIELDS x y z
SIZE 4 4 4
TYPE F F F
COUNT 1 1 1
WIDTH 1842
HEIGHT 1
VIEWPOINT -0 -0 -0 1 0 0 0
POINTS 1842
DATA ascii
-169.37036 49.25 140.54398
-107.06477 49.25 142.98895
-192.10434 49.25 144.07285
-96.440735 49.25 130.59016
-209.21408 49.25 136.9272
-238.73917 49.25 140.04593
-96.794785 49.25 133.40485
-162.23485 49.25 134.62761
-150.22006 49.25 142.84094
-145.16684 49.25 138.02455
-197.36981 49.25 136.74727
-113.45395 49.25 141.65462
-100.02406 49.25 138.95351
-168.52509 49.25 133.19489
-236.98553 49.25 141.79843
-114.31609 49.25 129.61398
-135.22675 49.25 142.92105
-183.33331 49.25 136.45309
-128.74945 49.25 131.60533
-155.06827 49.25 138.21091
-151.01534 49.25 133.78827
-134.77307 49.25 141.36459
-211.49765 49.25 136.35464
-223.50638 49.25 140.71574
-239.04813 49.25 139.55515
-192.4176 49.25 140.2429
-160.78323 49.25 136.05957
-149.14888 49.25 135.08118
-159.48914 49.25 143.45102
-126.71577 49.25 130.85228
-136.12073 49.25 137.12433
-106.55192 49.25 127.10818
-161.92429 49.25 132.81601
-164.10086 49.25 134.31853
-183.79095 49.25 137.8512
-209.19601 49.25 136.05939
-181.00496 49.25 142.8311
-109.11623 49.25 137.43253
-168.76413 49.25 136.58342
-99.232697 49.25 132.33839
-113.76903 49.25 127.84592
-161.65005 49.25 136.59792
-136.37993 49.25 137.0799
-250.4071 49.25 140.68628
-203.0692 49.25 136.57095
-258.17618 49.25 141.99802
-170.92015 49.25 133.70686
-166.47305 49.25 140.49846
-200.33591 49.25 136.62701
-148.21474 49.25 129.65637
-196.24731 49.25 137.18225
-175.65564 49.25 142.56584
-107.01428 49.25 141.37859
-116.55119 49.25 127.27419
-119.46062 49.25 126.44058
-178.97348 49.25 139.42966
-193.48312 49.25 143.0278
-127.27967 49.25 138.57854
-135.42293 49.25 129.38911
-230.03534 49.25 139.40993
-138.94304 49.25 137.39116
-126.41701 49.25 136.68617
-214.18471 49.25 136.82646
-194.5239 49.25 144.10817
-213.1749 49.25 142.88698
-111.35515 49.25 132.41132
-116.54408 49.25 133.92789
-236.06961 49.25 139.73871
-160.68726 49.25 141.27605
-160.54053 49.25 141.55772
-255.11034 49.25 134.56161
-269.38416 49.25 126.51859
-221.17999 49.25 134.48361
-237.92094 49.25 131.54437
-236.61871 49.25 128.50287
-146.82178 49.25 123.45199
-245.4142 49.25 126.8288
-208.32755 49.25 126.52702
-269.01038 49.25 123.28322
-256.78336 49.25 137.31085
-261.35608 49.25 123.93966
-225.50899 49.25 128.41548
-147.10831 49.25 122.8596
-176.04956 49.25 126.9278
-238.08286 49.25 126.09847
-235.17508 49.25 135.61864
-141.31572 49.25 127.02045
-242.97984 49.25 135.61588
-272.9913 49.25 139.95322
-283.97821 49.25 128.38049
-270.25082 49.25 128.32477
-203.89525 49.25 128.74127
-126.76132 49.25 125.41699
-240.99152 49.25 128.77126
-139.34848 49.25 126.77412
-238.04993 49.25 130.78029
-252.65469 49.25 130.53395
-158.3414 49.25 124.94269
-179.2276 49.25 124.43848
-218.99232 49.25 123.30322
-275.12689 49.25 135.08852
-276.94742 49.25 129.23822
-238.91853 49.25 130.57751
-203.9617 49.25 131.34334
-274.56982 49.25 133.53403
-270.0499 49.25 131.319
-181.79523 49.25 131.17955
-159.23218 49.25 125.91248
-159.56943 49.25 126.96421
-260.28494 49.25 138.36145
-210.42363 49.25 135.19173
-250.4082 49.25 137.40788
-249.94153 49.25 131.61668
-273.40134 49.25 141.17159
-271.30469 49.25 134.17686
-275.40457 49.25 130.05647
-219.37506 49.25 125.68122
-234.27316 49.25 124.93509
-258.34308 49.25 132.12518
-159.13356 49.25 125.82304
-125.03721 49.25 124.74408
-153.6806 49.25 127.75423
-222.35947 49.25 123.69301
-157.87663 49.25 123.53713
-242.73021 49.25 130.31131
-283.11301 49.25 141.73286
-247.31703 49.25 132.18144
-169.89912 49.25 127.33427
-212.30913 49.25 123.43787
-194.18091 49.25 131.6786
-189.16087 49.25 127.24972
-165.15964 49.25 129.52809
-139.43925 49.25 123.78844
-257.04883 49.25 132.22591
-237.03801 49.25 136.83765
-189.59326 49.25 127.61388
-243.94826 49.25 137.86565
-284.5874 49.25 136.76715
-284.15002 49.25 129.93184
-260.17627 49.25 122.83234
-201.19841 49.25 132.31427
-193.16008 49.25 125.92976
-281.37622 49.25 126.01861
-274.04575 49.25 141.38884
-283.89157 49.25 138.07753
-207.02554 49.25 130.67834
-266.97385 49.25 130.83722
-264.77261 49.25 127.84186
-281.86786 49.25 126.98078
-209.74156 49.25 131.60866
-231.29156 49.25 125.22083
-248.1638 49.25 137.07111
-142.61035 49.25 124.52391
-127.71373 49.25 126.74939
-257.70068 49.25 139.7697
-255.49879 49.25 137.45407
-278.97791 49.25 142.17224
-189.28584 49.25 130.19185
-234.17859 49.25 125.49695
-241.71419 49.25 123.56234
-281.94418 49.25 127.1055
-248.96747 49.25 124.69815
-232.13083 49.25 135.85861
-268.26904 49.25 126.45921
-238.22827 49.25 130.72314
-267.50528 49.25 124.51756
-193.05116 49.25 129.04385
-207.73285 49.25 134.82489
-143.51701 49.25 125.32633
-207.42859 49.25 123.74689
-167.38654 49.25 128.95624
-151.95471 49.25 123.48154
-202.5706 49.25 130.09103
-283.95557 49.25 139.66817
-275.68823 49.25 132.72462
-185.68127 49.25 126.06851
-199.8418 49.25 132.76939
-231.61612 49.25 129.84734
-242.72389 49.25 127.11391
-213.05099 49.25 123.01707
-210.51996 49.25 125.27023
-210.67346 49.25 131.00439
-175.33492 49.25 124.94962
-229.0018 49.25 127.8021
-284.05551 49.25 127.81468
-256.70367 49.25 137.40454
-258.96591 49.25 123.03025
-216.49631 49.25 135.50365
-242.05664 49.25 126.46571
-250.18628 49.25 127.48282
-251.89178 49.25 127.30658
-224.3916 49.25 125.91624
-136.72934 49.25 127.28296
-259.8175 49.25 137.13644
-215.76698 49.25 132.60182
-175.11201 49.25 131.92603
-290.09097 49.25 127.30039
-278.43634 49.25 138.70653
-205.84103 49.25 128.22392
-281.40378 49.25 139.8138
-274.37296 49.25 133.93839
-189.14584 49.25 123.7327
-180.84506 49.25 129.5719
-288.95459 49.25 129.43364
-262.7569 49.25 133.9218
-250.27785 49.25 137.84459
-227.76944 49.25 124.65288
-246.78609 49.25 132.30009
-232.04257 49.25 126.34021
-194.30077 49.25 133.88657
-279.50403 49.25 127.86196
-292.87897 49.25 124.31279
-212.39395 49.25 126.95
-275.35477 49.25 129.92221
-167.64105 49.25 128.27792
-251.11507 49.25 130.65102
-177.04991 49.25 129.66405
-244.54266 49.25 138.16522
-223.31583 49.25 123.30904
-259.53448 49.25 130.73477
-255.14879 49.25 126.58791
-242.88574 49.25 135.44333
-116.24863 49.25 123.91675
-166.26303 49.25 126.578
-288.97955 49.25 128.90724
-177.46738 49.25 130.5132
-266.83994 49.25 131.05888
-167.14783 49.25 126.95015
-268.36737 49.25 129.08914
-275.04669 49.25 138.08842
-201.01196 49.25 128.56795
-280.66461 49.25 141.29968
-170.58249 49.25 124.967
-258.60016 49.25 125.22767
-183.9731 49.25 124.02869
-235.02101 49.25 136.91121
-192.00433 49.25 130.55705
-224.61728 49.25 129.35617
-203.66859 49.25 129.2578
-159.9184 49.25 123.63512
-209.26337 49.25 125.79815
-265.608 49.25 131.19832
-119.63371 49.25 125.31291
-273.56271 49.25 135.3636
-254.81778 49.25 135.87404
-223.49174 49.25 135.47528
-193.69601 49.25 128.90834
-200.63503 49.25 128.04926
-292.0892 49.25 126.03319
-131.25002 49.25 122.88359
-285.89667 49.25 141.53188
-195.6219 49.25 130.75362
-273.7735 49.25 126.17819
-291.91937 49.25 123.87923
-252.36278 49.25 125.75639
-232.45227 49.25 137.14644
-275.73892 49.25 132.30148
-284.34064 49.25 140.46835
-253.27878 49.25 130.15799
-271.16275 49.25 141.43121
-271.5527 49.25 124.65939
-205.89124 49.25 123.97997
-292.93689 49.25 124.3588
-207.28891 49.25 132.86963
-283.60571 49.25 129.61586
-254.54053 49.25 123.40621
-183.22183 49.25 126.38811
-269.90622 49.25 134.5329
-256.2879 49.25 123.65678
-216.40862 49.25 124.61794
-169.21481 49.25 127.80442
-262.96243 49.25 127.91838
-276.16336 49.25 126.74648
-250.36526 49.25 132.66238
-207.07417 49.25 125.18732
-250.11462 49.25 130.46878
-275.61456 49.25 141.63179
-273.25577 49.25 141.64767
-226.93753 49.25 124.19827
-271.50458 49.25 124.91796
-161.33115 49.25 129.2619
-260.04922 49.25 124.80704
-134.3214 49.25 122.8447
-243.27545 49.25 128.60423
-251.70131 49.25 123.38495
-120.96808 49.25 125.64066
-176.90535 49.25 130.91144
-168.33208 49.25 124.44282
-100.22987 51.249851 143.64896
-91.682816 51.179913 134.67448
-235.4456 51.245651 143.78746
-210.68481 51.233761 143.83421
-258.43222 51.189537 143.91762
-141.31009 51.147121 143.96312
-135.17593 51.135288 143.97292
-229.10555 51.096279 143.9989
-295.36099 51.11166 134.82684
-295.30978 51.229115 126.28132
-92.106003 49.596081 137.55881
-92.772125 49.814079 139.02544
-198.25967 50.896805 144.07394
-228.51181 50.94627 144.0565
-205.63205 50.920506 144.06558
-144.51405 50.831551 144.09695
-167.9928 50.587303 144.18309
-246.48863 50.908245 144.0699
-241.0181 50.706619 144.14101
-262.87262 50.670254 144.15384
-135.3203 50.599785 144.17868
-262.92737 50.43008 144.23798
-165.40141 50.167206 144.32971
-267.1062 50.323895 144.27502
-239.61511 50.435528 144.23607
-164.45808 50.245098 144.30254
-216.72612 49.833778 144.44505
-243.30707 49.904743 144.42055
-281.19601 49.682682 144.49724
-237.87791 50.113132 144.34859
-137.22635 50.414837 144.24329
-142.96294 50.503632 144.2123
-217.08328 50.493412 144.21587
-111.24512 50.420483 144.24133
-102.87655 49.759758 144.47063
-122.37521 49.822231 144.44905
-149.17703 49.70697 144.48885
-123.40358 49.797764 144.45749
-189.0762 49.658581 144.50557
-295.34366 50.602718 135.39662
-294.46326 50.691483 138.22595
-291.46896 49.954758 142.30972
-286.48422 50.202999 144.26396
-295.27551 49.25972 133.68829
-291.33456 49.460728 142.52084
-181.12305 49.251064 144.24997
-264.06348 49.260941 144.30562
-172.74329 49.310566 144.40633
-178.84785 49.420895 144.49644
-279.3461 49.452839 144.50943
-159.15744 49.509026 144.52278
-160.3504 49.554916 144.52556
-195.59822 49.564613 144.52527
-224.4312 49.611328 144.51926
-98.597755 49.250687 143.76112
-97.744186 49.365738 143.68091
-96.791664 49.421093 143.24619
-99.894386 49.290348 144.23286
-286.25806 152.49277 -0.99872398
-295.49313 143.10208 -0.26992214
-295.44604 143.81709 0.69836932
-294.70901 146.6918 0.38965148
-295.5 141.07509 -0.028079495
-291.43884 66 131.00308
-293.82031 66 126.51287
-288.46878 66 131.21715
-293.21829 66 122.83664
-291.51215 66 128.48804
-292.90942 66 126.24537
-293.02368 66 122.87329
-92.467583 66 128.02583
-95.808266 66 124.64973
-96.576141 66 128.72308
-99.47921 66 134.74394
-94.037407 66 122.9707
-96.487488 66 130.23792
-92.494392 66 121.3861
-151.34225 66 126.37457
-118.86896 66 133.88713
-206.88062 66 136.39247
-146.75288 66 136.26776
-166.85602 66 125.06647
-191.64894 66 136.51839
-201.33443 66 134.68796
-108.408 66 118.52294
-101.33092 66 128.76155
-224.8782 66 131.20471
-103.24232 66 126.85925
-137.81369 66 131.52307
-138.69904 66 133.61569
-162.01596 66 130.38983
-231.1369 66 134.34579
-110.10728 66 132.51367
-184.3163 66 133.62016
-114.48942 66 118.42017
-193.96365 66 131.10089
-150.37595 66 125.50093
-131.21202 66 121.57231
-215.57144 66 133.29482
-262.70721 66 136.91051
-159.74637 66 129.71057
-265.49771 66 135.8515
-152.50079 66 130.1476
-142.27806 66 124.14373
-180.6806 66 127.29366
-241.77499 66 136.62332
-239.6355 66 132.912
-165.07697 66 129.12576
-228.51349 66 135.46819
-96.961403 66 116.9372
-172.61874 66 133.9805
-136.72281 66 137.07483
-172.55948 66 128.729
-247.59402 66 133.24474
-169.49564 66 135.71968
-136.43225 66 125.99308
-130.6938 66 126.00922
-196.44183 66 136.35703
-137.76526 66 129.737
-251.92137 66 135.43727
-102.33884 66 131.99644
-233.91214 66 136.08629
-118.48209 66 117.89508
-224.70728 66 130.94487
-123.93047 66 123.84906
-161.04149 66 123.76894
-143.33145 66 135.92055
-200.1779 66 134.66895
-180.36438 66 126.8063
-134.39532 66 135.05583
-100.71737 66 121.5121
-129.39719 66 134.86311
-102.2427 66 134.02774
-146.83636 66 126.46232
-228.6279 66 132.25562
-102.88561 66 126.64099
-251.53271 66 136.82999
-162.15009 66 129.67827
-273.2858 66 136.56012
-188.44489 66 134.02606
-126.76106 66 121.39325
-226.12613 66 131.54417
-187.78223 66 126.16645
-97.171707 66 120.4371
-142.02515 66 136.70007
-132.62918 66 130.37709
-130.91747 66 134.70337
-212.28049 66 135.2683
-101.64298 66 123.85522
-228.04253 66 133.16052
-112.9403 66 133.90871
-135.14499 66 130.33682
-161.40436 66 125.21071
-122.81471 66 122.72312
-97.462029 66 125.54926
-127.95506 66 131.1474
-120.75638 66 124.24744
-209.39059 66 131.51923
-169.73984 66 126.9974
-147.96091 66 123.65316
-247.99858 66 133.10588
-163.45404 66 135.87964
-149.36377 66 127.94373
-163.30939 66 130.51448
-105.04719 66 135.42587
-94.136398 66 118.13188
-151.17569 66 130.14058
-223.24263 66 130.05182
-175.08466 66 131.0518
-224.08099 66 137.28986
-191.07242 66 136.9048
-134.54953 66 131.86403
-101.43855 66 127.42426
-113.12595 66 129.68103
-207.97354 66 137.09674
-141.34848 66 120.50056
-145.4449 66 136.5938
-158.396 66 126.44294
-151.61475 66 122.36449
-100.58053 66 132.61876
-103.56078 66 136.39725
-209.34177 66 133.98331
-140.91188 66 135.96582
-218.8671 66 129.83482
-271.7092 66 136.20358
-216.60541 66 134.02995
-116.80027 66 119.04985
-190.90408 66 126.78304
-119.25311 66 133.1424
-190.51862 66 129.99191
-114.70454 66 133.30205
-165.25464 66 133.00636
-152.43613 66 122.0134
-137.33263 66 121.5129
-239.74936 66 134.41083
-193.33354 66 128.05496
-105.16362 66 123.79374
-151.48833 66 127.41645
-147.30969 66 128.20343
-130.90025 66 121.82997
-150.80025 66 130.86568
-234.62698 66 136.21172
-146.82959 66 123.73176
-253.25562 66 137.28264
-104.2363 66 126.16995
-102.20547 66 117.18639
-116.24624 66 126.11413
-114.61842 66 127.61638
-174.49409 66 131.20578
-115.48743 66 129.84985
-150.71661 66 128.46077
-157.63449 66 127.87379
-223.65179 66 130.51096
-121.6214 66 136.90311
-115.33612 66 117.48656
-240.12886 66 136.7162
-103.08932 66 119.39384
-148.76663 66 128.43124
-108.0077 66 124.16357
-182.75836 66 134.00552
-109.5206 66 132.21233
-98.272766 66 128.0295
-207.65018 66 132.71376
-156.29608 66 136.03793
-156.06247 66 124.8257
-126.65618 66 132.50076
-131.30971 66 127.38251
-175.16666 66 136.88441
-147.11743 66 128.60818
-142.44995 66 122.74371
-156.77032 66 123.61662
-158.03275 66 126.71603
-114.71928 66 125.17711
-217.14993 66 130.60091
-191.0101 66 126.88094
-100.48506 66 134.37376
-173.68741 66 131.52966
-178.32381 66 131.54132
-203.89316 66 127.86769
-118.25318 66 129.51276
-145.26184 66 133.5275
-188.62424 66 135.70601
-150.4756 66 129.60806
-221.7458 66 130.00487
-243.9057 66 134.41107
-102.57426 66 128.3511
-104.32249 66 130.2663
-192.19754 66 128.95834
-213.27058 66 129.71057
-131.87219 66 123.95892
-210.50278 66 135.08054
-203.35037 66 134.69614
-106.33054 66 133.48734
-137.51804 66 120.53055
-110.04509 66 130.8611
-108.07556 66 130.60301
-134.5423 66 126.70419
-214.08698 66 134.66531
-115.11784 66 118.89569
-262.59821 66 135.3024
-125.29684 66 134.07951
-134.10782 66 122.47405
-119.15668 66 131.25407
-137.95802 66 123.56664
-100.83711 66 127.59717
-137.26334 66 122.76556
-135.69116 66 122.52457
-150.0416 66 131.86232
-174.26144 66 131.31627
-93.961639 66 116.11775
-116.41261 66 121.02161
-141.99841 66 121.90837
-102.49622 66 117.3189
-206.86356 66 133.96684
-149.36644 66 130.24144
-146.38483 66 136.14326
-132.54337 66 134.76285
-130.44577 66 135.92165
-225.31241 66 136.86613
-185.73398 66 129.62485
-174.82629 66 134.54843
-136.34898 66 135.68983
-115.21312 66 132.74146
-209.40993 66 133.42009
-230.48752 66 133.29327
-268.32162 66 132.37067
-186.77827 66 124.77358
-148.86423 66 119.36328
-258.01279 66 133.53755
-281.41867 66 135.47437
-273.13718 66 115.44031
-194.28961 66 125.88459
-136.37511 66 115.11526
-208.08768 66 117.88087
-191.98015 66 125.30419
-137.34457 66 114.82206
-262.20773 66 129.91472
-214.93796 66 118.5451
-210.1485 66 124.15199
-263.55133 66 126.17365
-222.68134 66 117.526
-133.13518 66 115.82429
-265.97522 66 115.26445
-159.04605 66 114.83763
-228.81152 66 129.40923
-214.53702 66 122.42634
-231.71259 66 123.31065
-236.04904 66 123.78957
-254.73721 66 129.10042
-201.12328 66 124.0904
-272.63583 66 131.48685
-189.65143 66 116.01141
-220.14931 66 120.76366
-188.80122 66 116.50945
-252.24039 66 121.33996
-262.64771 66 132.82607
-259.86237 66 120.23393
-234.33212 66 128.84531
-222.81471 66 126.06153
-198.75743 66 122.40916
-163.18546 66 117.52145
-145.38992 66 115.13173
-130.39738 66 117.46387
-280.15622 66 129.14275
-269.18875 66 132.37404
-238.68542 66 131.19133
-141.74222 66 115.085
-179.47197 66 117.34762
-249.33948 66 117.04716
-224.17912 66 128.23355
-237.44173 66 124.95403
-164.37175 66 120.21553
-163.18132 66 121.66953
-245.76376 66 120.45532
-290.64911 66 120.56358
-247.57866 66 128.54276
-283.16544 66 124.38937
-155.30051 66 115.60883
-239.73285 66 124.29739
-286.1452 66 130.31429
-245.70016 66 118.9521
-213.65837 66 124.14187
-245.45837 66 117.79522
-163.59492 66 119.79105
-146.99773 66 119.77071
-247.76236 66 115.08118
-246.09595 66 131.79291
-189.32053 66 122.68519
-191.48019 66 118.36456
-279.75153 66 125.64851
-168.08286 66 122.75271
-125.53873 66 118.26986
-182.9718 66 123.26871
-257.72754 66 117.58786
-112.78352 66 116.57121
-203.51704 66 127.21078
-281.91232 66 129.55191
-137.20935 66 116.71297
-141.25966 66 117.80174
-263.30438 66 129.94524
-248.77544 66 125.12405
-292.60175 66 117.42153
-260.21478 66 128.03542
-272.21622 66 124.46552
-258.44458 66 126.34938
-270.29001 66 121.79005
-177.48355 66 115.63841
-274.91833 66 133.07266
-146.76677 66 114.81537
-273.30954 66 125.22656
-281.75555 66 125.31178
-242.49124 66 115.04266
-282.99731 66 131.91071
-102.06921 66 115.28802
-205.79749 66 122.3704
-222.13043 66 127.9247
-220.98944 66 123.19866
-241.41708 66 121.05636
-148.56477 66 118.01183
-206.34537 66 117.30044
-261.16696 66 129.94504
-286.05762 66 126.92232
-285.66357 66 120.73023
-271.82812 66 119.28857
-226.68292 66 129.90073
-254.50928 66 120.30491
-171.75299 66 119.4365
-181.81148 66 118.76765
-205.23912 66 122.26189
-273.54196 66 118.93851
-258.52084 66 124.81656
-209.22272 66 122.82916
-210.1022 66 121.28863
-197.03345 66 124.19677
-256.01074 66 127.48674
-283.26019 66 136.31175
-197.38641 66 119.7259
-144.38802 66 115.78004
-114.92908 66 115.77863
-212.83203 66 122.3285
-229.19452 66 125.34708
-217.60303 66 118.50594
-267.32504 66 123.62723
-291.08612 66 124.07581
-267.55597 66 118.2133
-260.07523 66 116.05412
-212.62708 66 118.73241
-110.10136 66 115.59441
-264.38763 66 129.27013
-242.11931 66 126.84808
-227.19763 66 126.67618
-280.94006 66 126.60997
-173.02127 66 116.55627
-237.65332 66 130.58185
-188.10591 66 118.55146
-256.92029 66 120.93619
-196.41861 66 123.81822
-277.45535 66 134.92952
-288.625 66 122.97973
-281.43234 66 122.9428
-121.24403 66 116.28899
-252.17499 66 125.83778
-262.65808 66 134.61075
-285.80801 66 128.36238
-215.16702 66 121.20768
-241.15878 66 128.34009
-195.61224 66 119.72753
-249.75427 66 132.79602
-126.34321 66 115.65965
-207.42287 66 118.59014
-267.79919 66 132.70346
-178.6317 66 114.99863
-209.13594 66 123.10508
-231.77899 66 119.82048
-159.33191 66 122.16664
-246.34297 66 127.15663
-161.23938 66 115.15792
-209.185 66 123.33701
-272.84668 66 123.18221
-265.12723 66 125.83528
-271.52167 66 116.89028
-168.69705 66 116.84037
-268.9136 66 125.55871
-181.9422 66 118.39877
-230.19347 66 129.21922
-259.01385 66 132.44057
-215.18613 66 120.33401
-241.02621 66 119.21008
-263.45563 66 118.33872
-285.6759 66 115.27806
-264.02951 66 118.2882
-246.67416 66 124.36726
-166.65848 66 121.33595
-281.92676 66 127.07356
-217.24335 66 121.14304
-234.71469 66 127.72803
-120.50384 66 115.80677
-179.69421 66 119.8816
-245.75269 66 116.14639
-231.88751 66 126.09764
-197.11026 66 124.00871
-205.5726 66 117.39432
-201.62378 66 124.44743
-274.13834 66 128.54608
-289.80676 66 123.41908
-237.36868 66 117.80276
-258.92163 66 128.83171
-284.56213 66 133.52574
-223.15205 66 127.23875
-179.2099 66 117.25406
-232.18893 66 119.50237
-197.56148 66 125.66673
-214.40765 66 127.2998
-238.17278 66 131.14772
-228.86595 66 125.49315
-237.20602 66 118.6534
-231.40828 66 118.53188
-228.28304 66 125.2907
-126.12225 66 117.19751
-252.83954 66 119.56038
-269.08453 66 124.31366
-258.54636 66 126.26189
-281.59406 66 115.91322
-207.67375 66 115.64833
-222.43977 66 123.1473
-239.82152 66 118.12614
-239.67688 66 127.4151
-99.778069 66 114.71024
-198.06747 66 119.36
-207.40494 66 117.46533
-182.57515 66 116.4961
-278.71899 66 114.81906
-153.51561 66 115.90016
-242.79849 66 121.01055
-273.60855 66 125.12713
-218.62204 66 116.14217
-131.16788 66 116.11005
-189.14902 66 117.87134
-276.47186 66 120.64984
-234.45201 66 124.2812
-292.06097 66 118.94508
-258.25174 66 116.57024
-278.19504 66 136.12416
-235.31424 66 130.46437
-243.41631 66 117.14243
-198.38548 66 125.11811
-231.71692 66 125.19506
-171.79372 66 121.70051
-177.05138 66 122.31387
-235.98119 66 130.2919
-253.24902 66 120.72242
-210.6312 66 116.94193
-257.12619 66 132.86714
-197.83627 66 121.45612
-142.58606 66 116.27907
-148.34738 67.999741 136.65979
-196.9436 67.894814 136.87712
-205.13542 67.876617 136.89143
-171.36368 67.836342 136.9162
-294.80557 67.831497 129.76466
-285.63336 67.952934 136.80911
-91.843811 67.09919 128.98175
-94.391876 67.03212 134.00043
-100.1936 67.06382 137.19911
-211.03065 67.827362 136.92075
-156.28662 67.516167 137.07425
-151.6472 67.75251 136.95766
-168.01088 67.56543 137.04994
-105.07617 67.558441 137.05339
-139.23259 67.411552 137.12585
-267.41168 67.525429 137.06967
-213.73541 67.514839 137.07491
-205.12753 67.547737 137.05867
-250.64915 67.3964 137.13333
-154.52016 67.25264 137.20377
-144.30452 67.360039 137.15123
-264.33081 67.076653 137.28984
-221.70042 67.287178 137.18687
-106.08666 66.899216 137.37662
-148.25058 67.175835 137.24133
-183.19876 67.066872 137.29462
-134.17168 66.937286 137.358
-154.7975 67.019493 137.31779
-278.00131 66.615158 137.51434
-194.05144 66.599495 137.52194
-269.28632 66.587723 137.52765
-252.14142 66.807304 137.42119
-260.24591 66.80117 137.42416
-112.56669 66.473129 137.58321
-119.7104 66.652336 137.49632
-117.76271 66.575371 137.53365
-265.96271 66.890244 137.38097
-224.09738 66.885582 137.38322
-292.41812 67.49073 133.98059
-289.51831 66.827965 136.4706
-288.61243 66.771095 136.88564
-295.29617 66.015923 124.23984
-295.26749 66.007843 115.67334
-295.43567 66.117493 126.69684
-220.47089 66.001022 137.35745
-173.38504 66.044167 137.49036
-209.96317 66.098511 137.55598
-284.84421 66.101692 137.55878
-253.76605 66.145081 137.59062
-104.1387 66.172157 137.60513
-221.50461 66.194817 137.61461
-191.28415 66.293633 137.63359
-204.85081 66.30201 137.63374
-252.15929 66.340034 137.631
-283.48755 66.36335 137.62694
-182.78717 66.384949 137.6214
-117.26394 66.424225 137.60672
-91.51754 0.800919 134.74869
-291.86081 1 149.55157
-293.93741 1 146.07895
-290.11813 1 150.09212
-295.09244 1 137.53082
-289.80273 1 144.35445
-292.6767 1 138.11697
-291.39716 1 142.16302
-290.19958 1 146.75229
-286.47699 1 151.62703
-273.35159 1 137.10962
-107.49463 1 133.16615
-250.10382 1 134.55243
-257.81824 1 143.33723
-165.57028 1 137.62241
-176.41493 1 140.42307
-250.45149 1 139.82249
-221.70119 1 140.5242
-278.09406 1 141.92665
-136.34322 1 135.63678
-242.57407 1 142.07901
-287.10767 1 147.00035
-269.17892 1 146.31627
-208.05063 1 139.16074
-269.20316 1 135.17307
-268.42584 1 147.9579
-258.51666 1 132.95172
-251.40555 1 138.71097
-256.53625 1 144.17271
-254.10532 1 138.7811
-251.9389 1 143.29253
-261.39621 1 138.61124
-145.62202 1 137.64932
-287.09537 1 141.41145
-283.98279 1 143.14601
-149.19467 1 138.24382
-241.59308 1 143.83183
-251.25069 1 134.46536
-160.8427 1 133.21669
-238.31693 1 144.75929
-172.13937 1 137.54991
-280.94943 1 142.26027
-244.45004 1 133.0472
-236.75026 1 137.2382
-264.98676 1 139.52826
-110.68916 1 133.00481
-127.26205 1 132.37558
-256.57629 1 147.92265
-274.59811 1 132.49254
-181.97159 1 132.5325
-246.35773 1 135.57716
-255.87425 1 140.39999
-236.38434 1 142.62521
-204.44185 1 133.54756
-289.09357 1 132.57475
-210.16611 1 136.79532
-283.26807 1 144.01984
-130.54709 1 135.77617
-185.09007 1 140.60689
-152.92038 1 138.44591
-270.08279 1 148.118
-268.49149 1 137.70821
-248.25702 1 138.93744
-264.5495 1 149.10519
-264.6488 1 144.7209
-208.10887 1 140.35593
-196.21118 1 136.23682
-174.43369 1 137.11456
-233.56509 1 142.4503
-206.48584 1 134.51212
-233.21706 1 144.36583
-277.08868 1 138.18831
-282.0188 1 146.95187
-289.33286 1 137.98839
-222.97388 1 144.96916
-282.49002 1 150.95766
-286.67401 1 142.56004
-172.26402 1 135.88252
-244.61644 1 141.74312
-167.06819 1 137.76756
-250.08859 1 143.37756
-166.44695 1 136.35602
-263.85706 1 141.15222
-245.11975 1 136.36406
-200.01694 1 138.78735
-157.19879 1 134.73318
-259.12939 1 143.56009
-253.31824 1 136.79962
-217.44954 1 139.75554
-265.54974 1 132.41028
-135.41991 1 133.12697
-175.98355 1 137.67049
-214.09407 1 141.79933
-194.27646 1 142.4225
-173.84499 1 132.86987
-243.85309 1 147.77588
-114.75211 1 134.42183
-228.963 1 134.72772
-272.93652 1 147.70346
-172.20428 1 136.41495
-285.46893 1 149.39713
-209.14728 1 132.43074
-220.47354 1 142.54729
-237.83878 1 144.53972
-164.71329 1 133.45128
-213.56561 1 137.98221
-206.77721 1 136.06099
-274.43872 1 134.27495
-262.82465 1 150.10567
-270.94443 1 145.47375
-178.68202 1 135.16737
-200.86655 1 138.55354
-208.25388 1 136.567
-176.80951 1 136.49374
-252.33813 1 133.2628
-138.35089 1 133.32224
-209.31586 1 138.77327
-191.70123 1 142.70764
-226.90424 1 133.07829
-143.38458 1 133.2894
-244.18295 1 139.60269
-241.36209 1 133.96848
-254.72452 1 146.70337
-282.92783 1 148.67337
-233.64661 1 141.74522
-254.90175 1 147.14459
-267.6467 1 148.50975
-283.27716 1 149.73289
-156.72336 1 138.69415
-257.7597 1 136.84332
-174.88768 1 137.41335
-281.82678 1 150.83406
-215.17807 1 133.32831
-277.50107 1 142.74683
-210.50694 1 137.66263
-134.16518 1 135.43451
-286.65121 1 135.62773
-159.90207 1 137.41846
-208.80605 1 142.88666
-237.75983 1 144.72
-224.82355 1 142.79558
-207.69858 1 139.24498
-216.28922 1 139.76561
-213.61963 1 142.39488
-219.5903 1 145.46576
-217.49399 1 142.45192
-196.13599 1 135.01216
-288.711 1 144.62885
-281.9679 1 148.62546
-277.31714 1 143.61832
-203.07353 1 140.40794
-254.79752 1 132.52544
-292.64331 1 132.92967
-209.26935 1 139.66492
-135.96219 1 134.20395
-174.64008 1 139.20198
-239.95175 1 145.93672
-137.23853 1 134.70042
-260.78433 1 145.15506
-187.25682 1 132.32346
-146.18129 1 137.93593
-199.46196 1 142.76306
-264.3168 1 140.6953
-273.76834 1 146.90388
-213.42989 1 134.06352
-268.52972 1 141.94391
-273.5141 1 135.43678
-194.98988 1 139.86896
-269.01279 1 146.79391
-237.66861 1 144.25597
-247.4082 1 139.13234
-245.63322 1 143.55717
-242.80234 1 145.54141
-243.1422 1 137.55537
-150.18591 1 134.7843
-230.15601 1 141.81786
-268.53217 1 138.32628
-284.31454 1 136.0417
-185.65112 1 139.50812
-151.25421 1 133.21266
-257.47836 1 140.63492
-225.37152 1 143.2728
-152.75775 1 137.72502
-214.3026 1 136.41554
-261.03564 1 147.22163
-227.53334 1 135.55684
-261.52542 1 133.35124
-242.26634 1 137.51479
-291.32764 1 136.41437
-168.06651 1 134.01506
-180.99515 1 137.9127
-236.45294 1 146.86885
-170.62744 1 134.69431
-255.44064 1 141.37534
-292.69855 1 134.12512
-264.05249 1 149.22423
-282.95154 1 139.23286
-182.71735 1 138.78908
-157.21492 1 138.78047
-194.89142 1 137.30145
-273.77094 1 141.15405
-240.32352 1 135.93027
-231.43311 1 140.52415
-269.43982 1 141.32703
-256.62683 1 138.35971
-235.54971 1 139.17552
-195.88147 1 143.07748
-261.06714 1 136.74217
-190.14481 1 138.92458
-130.26723 1 134.00294
-211.35812 1 141.55458
-235.91888 1 135.66646
-244.47873 1 133.78632
-266.87344 1 144.83467
-277.83167 1 150.36266
-260.09464 1 133.29921
-92.685402 1 138.66826
-92.356148 1 142.47171
-94.366096 1 141.54446
-96.339027 1 145.98354
-94.967888 1 145.44687
-123.05885 1 143.40982
-147.562 1 140.78174
-220.18115 1 151.36349
-148.47086 1 143.14012
-208.45012 1 148.11107
-239.73439 1 150.60376
-150.14807 1 143.83136
-139.77512 1 139.39552
-190.10652 1 147.0246
-202.23016 1 149.48065
-158.43414 1 149.77467
-101.63383 1 133.88864
-202.70337 1 151.41235
-139.37582 1 147.91147
-134.14786 1 145.99437
-119.48042 1 135.81313
-227.05222 1 147.66888
-123.98873 1 140.439
-173.88629 1 144.30511
-105.98769 1 143.25069
-240.75101 1 149.43214
-113.35211 1 149.98003
-170.83966 1 152.3033
-121.39583 1 136.55891
-99.082008 1 142.69341
-180.21051 1 142.942
-147.31418 1 145.42438
-140.15253 1 149.37607
-175.62802 1 147.50769
-111.66783 1 145.1105
-95.968559 1 139.21689
-180.7132 1 143.52621
-105.73706 1 135.2359
-193.91542 1 143.56665
-241.15155 1 148.01131
-150.11617 1 147.5266
-166.08264 1 141.91463
-232.06107 1 149.99814
-170.64188 1 149.44777
-120.18031 1 151.06834
-102.25878 1 147.82571
-129.2708 1 146.03439
-119.00753 1 148.96977
-200.61292 1 146.50677
-138.69995 1 140.05965
-237.51292 1 151.33905
-103.50797 1 146.58807
-109.13368 1 134.83746
-98.058075 1 136.84872
-98.42765 1 144.57661
-151.88557 1 139.21622
-132.18546 1 146.66061
-189.80081 1 149.50754
-119.98967 1 142.34714
-199.62057 1 147.7429
-147.94974 1 143.711
-100.91374 1 137.29941
-166.54993 1 150.43863
-114.36337 1 144.15866
-209.19551 1 149.12587
-183.92722 1 145.75717
-128.36057 1 148.55789
-184.89163 1 149.20978
-124.01696 1 138.07997
-112.12947 1 147.39052
-115.83087 1 140.79784
-172.91982 1 151.09724
-139.03471 1 150.39763
-242.5285 1 151.80664
-173.45029 1 144.7334
-112.33408 1 144.9362
-131.02264 1 144.70326
-205.8261 1 152.07613
-135.55072 1 140.57294
-166.79251 1 148.6389
-214.02979 1 148.50096
-115.77798 1 146.67134
-171.47449 1 143.00558
-141.77138 1 138.23071
-204.28659 1 148.20203
-149.65881 1 144.08136
-154.10736 1 147.93173
-107.17031 1 147.60576
-119.90424 1 136.34723
-160.98987 1 147.35828
-126.61911 1 142.36604
-128.63287 1 139.2654
-127.92162 1 143.25391
-110.31328 1 138.70242
-98.525269 1 138.68001
-129.44202 1 150.10349
-213.38689 1 151.87274
-252.93423 1 152.34734
-166.37518 1 143.01888
-159.93793 1 144.40894
-185.19711 1 150.53062
-126.20309 1 140.01031
-147.46922 1 138.53436
-244.60133 1 148.94827
-171.97861 1 145.69418
-183.99026 1 146.88737
-128.91971 1 140.61844
-233.94452 1 147.82362
-109.73403 1 147.77147
-184.6163 1 144.63838
-230.89908 1 150.6748
-211.76212 1 151.34477
-100.48869 1 148.20886
-157.02522 1 140.13133
-183.10858 1 148.17998
-137.72546 1 146.56232
-247.32474 1 149.70122
-132.77829 1 139.61771
-161.42786 1 140.0743
-128.61369 1 142.44667
-131.53397 1 137.95085
-152.01552 1 146.05731
-153.87 1 150.33795
-116.5118 1 147.00632
-250.51723 1 150.01524
-210.20383 1 150.74318
-105.54807 1 140.3082
-152.82452 1 139.42133
-152.90256 1 146.51939
-102.09409 1 147.25784
-217.35315 1 149.87869
-98.847061 1 145.90056
-139.05087 1 149.89452
-132.51511 1 148.06873
-197.23308 1 148.8158
-105.63834 1 143.37421
-150.13736 1 150.95013
-114.94588 1 135.67851
-161.50182 1 149.18069
-208.81094 1 146.62366
-104.11208 1 151.17116
-132.556 1 148.14198
-211.27588 1 145.62779
-194.7195 1 148.16261
-184.54501 1 150.76187
-192.44803 1 146.70818
-103.16057 1 142.41762
-161.89479 1 142.52779
-136.30942 1 141.41135
-130.39157 1 140.64151
-140.29453 1 144.28615
-168.09674 1 152.15369
-108.98153 1 144.82306
-130.72063 1 140.08362
-240.18436 1 152.32271
-174.67891 1 149.03595
-112.09528 1 149.88438
-212.99957 1 151.55029
-163.56256 1 144.52773
-174.69991 1 147.75978
-198.17575 1 150.77487
-97.885353 1 142.25266
-126.3278 1 148.98323
-105.66624 1 136.62506
-171.87659 1 152.27675
-209.43149 1 152.01477
-116.99023 1 138.15715
-156.65405 1 139.72845
-143.944 1 141.55592
-192.93744 1 144.14932
-133.02338 1 147.32161
-134.47836 1 140.77014
-117.51921 1 139.98578
-232.26755 1 149.84871
-239.85307 1 151.12321
-143.54446 1 151.21042
-190.15823 1 146.13695
-179.31282 1 144.55316
-262.10815 1 151.35434
-226.61688 1 146.78854
-220.53458 1 147.50136
-113.42327 1 137.53786
-236.86124 1 149.67715
-175.00092 1 151.73265
-106.41822 1 147.9209
-160.83392 1 142.82509
-151.34183 1 145.68147
-225.33063 1 151.67342
-103.50167 1 133.83044
-124.99864 1 143.74326
-184.50916 1 143.64244
-100.72618 1 152.39691
-94.488182 1 145.96127
-96.881706 1 151.23868
-248.2914 0.99873513 152.52538
-220.8931 0.99843043 152.52879
-140.82144 0.99403113 152.5578
-202.24341 0.97819644 152.61053
-281.2937 0.97268379 152.62332
-202.17174 0.90531552 152.71703
-146.13303 0.88478893 152.7346
-284.53537 0.77668077 152.78838
-259.39111 0.76334733 152.79156
-149.80757 0.72274238 152.79742
-183.76913 0.70189279 152.79837
-295.40936 0.914774 141.73813
-91.528183 0.42394444 143.54745
-214.66628 0.54594278 152.79886
-210.22581 0.67740822 152.79846
-181.12756 0.66071898 152.79851
-203.49545 0.54510838 152.79886
-189.60208 0.077688396 152.79982
-251.00763 0.18968759 152.79982
-258.35284 0.0027311891 152.79982
-257.57471 -0.092888355 152.79982
-112.59089 0.614941 152.79865
-228.15219 0.34561259 152.79948
-109.44783 0.44240487 152.79918
-135.95135 0.43033284 152.79921
-278.61896 -0.35639396 152.79944
-215.44724 -0.34961057 152.79947
-218.3707 -0.26510617 152.79973
-276.51657 -0.38021466 152.79938
-212.68787 -0.096271917 152.79982
-189.98669 -0.085825637 152.79982
-156.92352 -0.096476316 152.79982
-225.88188 -0.14652511 152.79982
-197.65698 -0.59343785 152.79872
-170.71988 -0.5087108 152.79898
-106.30441 -0.6197921 152.79863
-218.18021 -0.6378873 152.79858
-292.78857 0.69984305 149.64394
-291.78143 0.096899271 150.57942
-288.03635 0.068266667 152.47101
-287.82434 -0.5572837 152.52411
-295.5 -0.24054831 134.06287
-294.21674 -0.90141392 147.52306
-144.51848 -0.99988484 152.5031
-110.99879 -0.99760002 152.53555
-186.27927 -0.99150664 152.56909
-209.78731 -0.99353021 152.56006
-280.74643 -0.99029732 152.57385
-248.24625 -0.98588741 152.5891
-175.05237 -0.97922939 152.60785
-230.88832 -0.93764633 152.68134
-91.960922 -0.96650547 145.18134
-94.648567 -0.74497515 150.07486
-91.5 -17.333075 134.58824
-91.5 -16.174423 135.94655
-290.85672 -15.75 146.22334
-290.62109 -15.75 145.7504
-293.84454 -15.75 135.31148
-291.09171 -15.75 141.86937
-291.1535 -15.75 142.35251
-291.68057 -15.75 146.10802
-186.24179 -15.75 138.5204
-172.77298 -15.75 132.67918
-108.71649 -15.75 132.74625
-194.5191 -15.75 134.44298
-110.32509 -15.75 139.77505
-239.64964 -15.75 136.58072
-166.97491 -15.75 141.24254
-95.704575 -15.75 133.28073
-151.15262 -15.75 133.35934
-115.10445 -15.75 145.56793
-131.82962 -15.75 134.37907
-202.32391 -15.75 139.41458
-169.33517 -15.75 141.25378
-136.39888 -15.75 146.25449
-104.37636 -15.75 136.7509
-126.47433 -15.75 134.15439
-162.91646 -15.75 136.52904
-156.63748 -15.75 132.73344
-226.0274 -15.75 136.50536
-212.26669 -15.75 132.91812
-112.64567 -15.75 144.90224
-209.41232 -15.75 138.4424
-226.05008 -15.75 138.33783
-214.52895 -15.75 138.5956
-146.76474 -15.75 146.72472
-118.14705 -15.75 135.88994
-182.15231 -15.75 135.08978
-126.55332 -15.75 132.20958
-127.17136 -15.75 133.92641
-143.89868 -15.75 143.93462
-121.62264 -15.75 140.93777
-140.73682 -15.75 142.82173
-212.72253 -15.75 135.26816
-109.08639 -15.75 132.88307
-161.14624 -15.75 134.67336
-206.33167 -15.75 132.93214
-125.17864 -15.75 139.66281
-109.64827 -15.75 134.31654
-141.09875 -15.75 138.82344
-188.78613 -15.75 138.21239
-220.71194 -15.75 134.70297
-177.16916 -15.75 139.55104
-184.88754 -15.75 138.69394
-96.689095 -15.75 136.11467
-258.62473 -15.75 135.19061
-147.17575 -15.75 144.62556
-181.14108 -15.75 132.06421
-168.7326 -15.75 139.32245
-193.78323 -15.75 132.74661
-100.82713 -15.75 139.39552
-152.64186 -15.75 141.70058
-159.17134 -15.75 136.68704
-129.55406 -15.75 141.65892
-161.67998 -15.75 136.30695
-118.58308 -15.75 135.91533
-136.04915 -15.75 132.30862
-110.28851 -15.75 146.94229
-173.67323 -15.75 138.6841
-114.70409 -15.75 149.08076
-127.34138 -15.75 134.01558
-173.41257 -15.75 142.82854
-125.81599 -15.75 134.97504
-153.56485 -15.75 138.38699
-202.4541 -15.75 135.93153
-161.96024 -15.75 137.56622
-198.24179 -15.75 134.03737
-114.22137 -15.75 139.32071
-134.92577 -15.75 135.71671
-240.60419 -15.75 135.61159
-260.05032 -15.75 132.99454
-134.28334 -15.75 142.30009
-98.213661 -15.75 139.10056
-164.95943 -15.75 139.72134
-164.32469 -15.75 142.96829
-148.61505 -15.75 134.58015
-164.83243 -15.75 131.42734
-184.71556 -15.75 137.15775
-142.54346 -15.75 135.93304
-210.17958 -15.75 134.07185
-176.28134 -15.75 141.00281
-144.6958 -15.75 133.60887
-141.25595 -15.75 141.9792
-235.45419 -15.75 131.36375
-131.87389 -15.75 132.09534
-184.94725 -15.75 136.0045
-194.01749 -15.75 134.47897
-181.1575 -15.75 139.95239
-163.7572 -15.75 135.73552
-167.39423 -15.75 144.35837
-107.33875 -15.75 134.01192
-167.51102 -15.75 136.41373
-138.34328 -15.75 137.50311
-241.3941 -15.75 136.89586
-166.77341 -15.75 139.37393
-150.84433 -15.75 133.25124
-246.85606 -15.75 136.09103
-117.56042 -15.75 133.4075
-156.12366 -15.75 140.07938
-270.6098 -15.75 132.13377
-128.03723 -15.75 147.67014
-133.62186 -15.75 134.20871
-219.85954 -15.75 133.83328
-157.74532 -15.75 136.19662
-143.92854 -15.75 140.93152
-107.45764 -15.75 132.76895
-193.67404 -15.75 132.9202
-185.1747 -15.75 131.89978
-235.87766 -15.75 135.39543
-115.08279 -15.75 145.73824
-129.24686 -15.75 141.36453
-143.47986 -15.75 141.69559
-143.90363 -15.75 135.82098
-142.01837 -15.75 138.26575
-160.38448 -15.75 142.43689
-127.32462 -15.75 138.06279
-160.75066 -15.75 142.91782
-176.18423 -15.75 133.89322
-226.71725 -15.75 133.35336
-118.67346 -15.75 140.91307
-183.08762 -15.75 132.664
-137.24675 -15.75 133.88606
-150.907 -15.75 131.67563
-254.48402 -15.75 132.49316
-130.32809 -15.75 136.14215
-149.21779 -15.75 133.00435
-240.16031 -15.75 131.5251
-180.39284 -15.75 138.62497
-140.80231 -15.75 135.76384
-164.27988 -15.75 138.62207
-175.9213 -15.75 139.29668
-129.53914 -15.75 142.45761
-189.58037 -15.75 132.79234
-112.72101 -15.75 135.38681
-220.81871 -15.75 134.07465
-253.55725 -15.75 135.4131
-106.36337 -15.75 149.82628
-215.31013 -15.75 136.58147
-157.25269 -15.75 133.06929
-111.5429 -15.75 150.48975
-212.26009 -15.75 136.21471
-248.21317 -15.75 133.36868
-200.27078 -15.75 135.99313
-175.71362 -15.75 138.54495
-256.2265 -15.75 135.29552
-157.43384 -15.75 134.11526
-117.80067 -15.75 148.07942
-98.881027 -15.75 139.97258
-270.61649 -15.75 133.49519
-138.97481 -15.75 136.30853
-235.6608 -15.75 136.49628
-148.09229 -15.75 132.11264
-97.599823 -15.75 141.93784
-230.50372 -15.75 136.8145
-133.9904 -15.75 137.89175
-235.38522 -15.75 137.62492
-167.44507 -15.75 135.8912
-225.35333 -15.75 137.03252
-261.66745 -15.75 133.74124
-174.1026 -15.75 141.955
-146.76993 -15.75 136.82266
-146.10663 -15.75 137.73331
-102.53929 -15.75 143.72031
-113.94352 -15.75 138.67278
-217.99399 -15.75 138.10899
-126.42225 -15.75 145.37184
-106.6167 -15.75 151.08958
-203.08214 -15.75 134.3582
-266.22705 -15.75 132.13521
-148.23807 -15.75 139.71339
-152.64507 -15.75 137.76395
-155.15372 -15.75 136.19778
-144.18762 -15.75 141.60626
-134.98927 -15.75 135.13666
-128.47015 -15.75 139.10497
-103.24257 -15.75 142.73848
-113.68671 -15.75 145.2789
-131.95471 -15.75 134.34807
-101.98392 -15.75 137.4453
-171.49265 -15.75 133.75308
-221.79031 -15.75 137.88913
-114.40788 -15.75 132.10818
-139.24487 -15.75 137.7442
-137.48511 -15.75 146.7885
-177.90012 -15.75 142.9176
-139.10196 -15.75 134.05722
-105.0632 -15.75 149.97388
-171.49619 -15.75 134.7231
-104.17159 -15.75 133.13052
-197.58975 -15.75 136.90109
-127.53368 -15.75 135.06384
-157.98256 -15.75 136.53273
-114.57747 -15.75 148.60172
-102.2722 -15.75 148.99423
-132.18605 -15.75 145.43906
-140.44893 -15.75 135.47324
-163.49643 -15.75 135.09541
-103.65895 -15.75 142.83961
-243.09967 -15.75 133.1032
-209.51538 -15.75 137.26106
-164.75015 -15.75 136.22232
-172.06113 -15.75 133.05556
-198.85718 -15.75 136.89018
-114.64502 -15.75 131.92627
-132.77124 -15.75 134.22113
-221.9064 -15.75 136.68922
-249.40262 -15.75 136.14711
-194.09354 -15.75 150.85233
-194.92923 -15.75 148.92871
-243.83316 -15.75 137.66641
-291.33658 -15.75 133.76808
-239.174 -15.75 138.82614
-287.31808 -15.75 140.85852
-262.25159 -15.75 142.48848
-196.35005 -15.75 147.38518
-190.40634 -15.75 145.99261
-141.15787 -15.75 150.78694
-207.4924 -15.75 143.37495
-261.79315 -15.75 149.61354
-224.75235 -15.75 142.91817
-214.32962 -15.75 150.9496
-200.95274 -15.75 145.39613
-241.94666 -15.75 138.67427
-217.4547 -15.75 141.58749
-265.62933 -15.75 144.40573
-229.11363 -15.75 144.02406
-237.81445 -15.75 147.08885
-144.63452 -15.75 149.67287
-243.42355 -15.75 140.65251
-175.53571 -15.75 148.2944
-208.3623 -15.75 146.3185
-266.86789 -15.75 150.24927
-275.25128 -15.75 142.89508
-197.12653 -15.75 148.14574
-258.62607 -15.75 149.12846
-287.64188 -15.75 139.78716
-220.69307 -15.75 141.74751
-260.74826 -15.75 150.45659
-242.01215 -15.75 142.78879
-271.61465 -15.75 136.17628
-261.2775 -15.75 144.46191
-179.59116 -15.75 147.81398
-121.56666 -15.75 150.09456
-237.77069 -15.75 141.69397
-242.56442 -15.75 144.0473
-177.45387 -15.75 146.77155
-151.18825 -15.75 147.48837
-247.02544 -15.75 148.93977
-181.46239 -15.75 146.28815
-210.82126 -15.75 140.23163
-183.62753 -15.75 147.56793
-282.00302 -15.75 150.63156
-155.95641 -15.75 149.54352
-245.83826 -15.75 142.76137
-235.42935 -15.75 149.21051
-218.54028 -15.75 142.06276
-192.79732 -15.75 147.31099
-240.26233 -15.75 146.46309
-266.87195 -15.75 141.98068
-140.64786 -15.75 150.33344
-286.34473 -15.75 133.70497
-105.4387 -15.75 151.24524
-246.16545 -15.75 143.07951
-256.00885 -15.75 135.53882
-204.48604 -15.75 141.9516
-250.53154 -15.75 147.27457
-219.73776 -15.75 140.18779
-224.41345 -15.75 148.00241
-242.02481 -15.75 146.82516
-168.17186 -15.75 148.7077
-239.59753 -15.75 147.49992
-241.9133 -15.75 142.38277
-180.87009 -15.75 151.05617
-184.09851 -15.75 150.00906
-212.88759 -15.75 141.95641
-263.42596 -15.75 147.45209
-261.84143 -15.75 145.25819
-248.9286 -15.75 150.58528
-207.33517 -15.75 144.58467
-232.67046 -15.75 148.05215
-277.57776 -15.75 145.28
-155.43037 -15.75 148.67181
-167.03995 -15.75 151.35796
-119.69807 -15.75 150.57733
-195.78618 -15.75 148.23569
-194.92586 -15.75 148.95026
-257.97147 -15.75 138.2894
-264.49896 -15.75 145.51382
-179.88629 -15.75 150.28416
-273.69965 -15.75 149.20494
-278.35193 -15.75 140.64725
-209.67854 -15.75 145.40906
-182.61308 -15.75 143.45352
-200.85461 -15.75 150.03389
-231.57298 -15.75 141.82982
-248.68013 -15.75 143.35999
-140.1649 -15.75 150.26035
-274.02914 -15.75 145.71117
-292.43246 -15.75 131.70135
-271.05038 -15.75 140.10156
-218.82391 -15.75 140.78853
-204.46492 -15.75 147.44859
-194.21071 -15.75 146.69104
-115.85651 -15.75 151.26321
-254.81552 -15.75 144.69666
-143.39836 -15.75 150.89101
-144.69739 -15.75 147.22815
-251.90437 -15.75 151.061
-248.65631 -15.75 147.44667
-283.10428 -15.75 139.16093
-179.63065 -15.75 148.43671
-185.65015 -15.75 150.83165
-253.39285 -15.75 147.60788
-176.36327 -15.75 144.59251
-238.72229 -15.75 150.30191
-285.02625 -15.75 138.83784
-248.56482 -15.75 147.06877
-247.69725 -15.75 150.93622
-191.01814 -15.75 150.39865
-235.29236 -15.75 145.75089
-246.78268 -15.75 140.50719
-284.62326 -15.75 135.84656
-218.64441 -15.75 143.72241
-186.42252 -15.75 147.33487
-271.28229 -15.75 141.69839
-254.62335 -15.75 150.89674
-211.4794 -15.75 150.77682
-271.32056 -15.75 134.30386
-186.00758 -15.75 143.01656
-146.06247 -15.75 150.64453
-140.51894 -15.75 148.61983
-258.28305 -15.75 146.48343
-267.29572 -15.75 144.10619
-217.25081 -15.75 146.77153
-251.90369 -15.75 145.81761
-280.43005 -15.75 149.87256
-160.83722 -15.75 150.27777
-142.70236 -15.75 150.58142
-208.89859 -15.75 141.79793
-229.45036 -15.75 139.62027
-215.65215 -15.75 150.06154
-275.9173 -15.75 143.59438
-170.3 -15.75 146.89565
-192.21213 -15.75 148.12979
-203.44133 -15.75 141.16441
-270.4335 -15.75 150.72894
-251.95886 -15.75 141.36191
-254.77051 -15.75 148.74034
-283.28375 -15.75 142.81956
-109.80859 -15.75 151.06743
-201.73952 -15.75 144.31548
-137.53726 -15.75 149.50809
-253.87872 -15.75 138.87828
-135.81529 -15.75 149.80823
-270.12653 -15.75 141.94382
-272.68097 -15.75 135.28807
-258.5755 -15.75 140.21454
-212.97255 -15.75 143.88486
-255.62833 -15.75 145.71149
-143.23969 -15.75 150.87518
-246.72983 -15.75 150.60612
-150.80684 -15.75 149.14439
-164.28532 -15.75 145.68108
-269.63361 -15.75 135.67186
-254.64252 -15.75 135.65739
-283.67386 -15.75 145.63779
-286.37524 -15.75 132.4166
-263.64456 -15.75 151.52496
-243.27795 -15.75 141.1758
-198.84532 -15.75 146.32179
-235.93533 -15.75 147.49107
-201.09457 -15.75 147.33401
-231.30823 -15.75 145.89078
-268.5921 -15.75 145.36049
-259.37723 -15.75 143.19286
-207.03577 -15.75 149.36617
-213.69292 -15.75 148.39894
-116.9169 -15.75 150.68427
-229.18542 -15.75 147.23775
-230.10455 -15.75 138.81767
-278.09506 -15.75 137.25696
-146.24643 -15.75 149.35999
-139.09531 -15.75 150.20438
-273.33234 -15.75 151.19464
-223.26039 -15.75 144.27797
-246.8999 -15.75 138.23874
-188.04247 -15.75 146.89793
-249.44479 -15.75 150.30722
-254.50159 -15.75 138.12193
-136.43727 -15.75 149.28996
-230.70648 -15.75 148.90549
-174.47603 -15.75 149.90431
-179.4465 -15.75 146.00119
-138.6557 -15.75 151.48914
-96.450218 -15.75 144.1526
-93.300797 -15.75 136.14781
-97.883965 -15.75 145.38251
-99.742325 -15.75 148.01295
-97.753807 -15.75 144.4938
-96.598846 -15.75 147.03986
-96.612305 -15.75 149.34488
-161.18376 -15.754967 151.70697
-266.77075 -15.755954 151.71243
-213.61893 -15.769889 151.76021
-197.30904 -15.77309 151.76846
-279.54208 -15.86461 151.88881
-182.70337 -15.884306 151.90314
-126.94687 -15.898372 151.91187
-254.5426 -16.019989 151.95149
-291.88373 -15.751166 149.2682
-98.214302 -17.437256 151.23343
-100.33872 -17.326267 151.7428
-101.33564 -16.307974 151.92343
-119.01937 -16.503908 151.90602
-148.80579 -16.367014 151.92073
-140.30638 -16.445417 151.91231
-138.06488 -16.423277 151.91469
-175.90562 -16.357883 151.92171
-266.27731 -16.212786 151.9373
-240.32716 -16.466944 151.91
-261.36655 -16.53723 151.90245
-168.25938 -16.442001 151.91267
-267.63052 -16.470118 151.90965
-222.94194 -16.790339 151.87453
-180.07718 -16.928013 151.85931
-255.86008 -16.967213 151.85498
-134.3163 -16.966099 151.8551
-266.98868 -17.105303 151.83945
-277.90225 -17.08445 151.84181
-223.00909 -17.163458 151.83284
-233.23579 -17.152863 151.83403
-177.31741 -17.112747 151.83859
-103.71257 -16.868801 151.86586
-187.51982 -16.651472 151.88986
-145.10172 -16.82836 151.87032
-224.6987 -16.574064 151.89842
-126.16054 -17.215847 151.82687
-160.40181 -17.220812 151.82631
-164.98863 -17.418444 151.80386
-151.99875 -17.412149 151.80458
-295.49469 -16.233955 142.11644
-295.15109 -16.6196 144.4655
-292.23474 -16.461237 149.28537
-289.29227 -16.473057 151.15584
-295.5 -16.335217 138.19679
-295.5 -17.250475 141.28404
-295.49985 -17.458321 134.83488
-294.8158 -17.642593 145.16672
-212.35767 -17.746777 151.54214
-265.31921 -17.728577 151.60954
-189.30682 -17.70891 151.64983
-222.17979 -17.639771 151.73061
-127.21911 -17.611084 151.75134
-106.86273 -17.525036 151.78876
-292.7496 -17.75 146.03215
-288.52383 -17.75 150.3847
-292.71509 -17.75 145.09102
-294.41135 -17.75 142.21141
-289.95135 -17.75 143.82854
-288.61594 -17.75 145.04692
-294.8735 -17.75 133.72559
-293.56058 -17.75 142.77513
-97.406273 -17.75 149.58257
-94.617279 -17.75 146.92297
-97.246452 -17.75 148.28101
-93.619987 -17.75 142.40157
-96.649033 -17.75 145.67723
-96.59935 -17.75 145.75928
-91.839485 -17.75 141.56444
-93.081718 -17.75 140.63153
-96.833824 -17.75 142.43762
-135.84077 -17.75 146.5282
-180.14194 -17.75 150.4659
-176.28748 -17.75 149.12491
-152.03543 -17.75 149.75543
-105.07065 -17.75 136.95007
-185.72302 -17.75 144.33633
-203.16739 -17.75 147.70389
-119.05165 -17.75 151.22495
-202.48166 -17.75 147.0768
-95.985847 -17.75 132.80211
-112.40735 -17.75 135.78223
-142.40804 -17.75 150.4865
-163.45401 -17.75 139.67393
-205.3313 -17.75 145.24026
-221.68518 -17.75 146.63835
-131.15454 -17.75 151.23215
-155.97729 -17.75 139.13208
-200.13248 -17.75 147.15842
-197.32718 -17.75 151.24005
-132.82455 -17.75 140.48296
-178.60519 -17.75 146.67972
-99.05677 -17.75 141.09579
-120.70651 -17.75 138.86331
-171.93686 -17.75 148.68881
-169.74025 -17.75 141.52438
-102.5894 -17.75 149.48076
-128.18196 -17.75 140.27368
-180.4201 -17.75 144.64523
-167.60533 -17.75 147.24036
-138.81654 -17.75 147.2216
-239.5695 -17.75 147.08777
-266.13153 -17.75 149.80585
-171.45377 -17.75 140.20477
-257.00458 -17.75 151.18399
-113.72852 -17.75 143.4718
-163.04895 -17.75 150.76546
-162.64143 -17.75 146.75621
-148.58359 -17.75 141.3842
-145.56427 -17.75 138.91043
-194.15045 -17.75 151.38573
-195.54062 -17.75 149.10019
