ply
format ascii 1.0
comment Humanplus generated
element vertex 1475
property float x
property float y
property float z
property uchar red
property uchar green
property uchar blue
end_header
1212.54 623.476 2722 145 147 137
1217.18 624.392 2726 146 146 137
1216.89 622.789 2719 146 146 136
1219.74 622.789 2719 146 146 136
1222.58 622.789 2719 145 146 135
1225.43 622.789 2719 144 145 136
1227.37 622.33 2717 145 146 136
1227.49 620.956 2711 146 146 136
1228.96 620.269 2708 144 145 135
1229.98 619.353 2704 143 144 134
1230.07 617.979 2698 141 141 133
1227.41 615.23 2686 138 138 132
1222.43 611.336 2669 140 140 130
1222.47 609.962 2663 142 144 136
1225.25 609.962 2663 129 135 142
784.503 747.35 3248 226 226 221
785.959 745.509 3240 178 197 198
788.13 744.359 3235 130 153 154
789.8 742.748 3228 121 114 110
791.702 741.367 3222 111 115 115
793.344 739.757 3215 115 121 120
795.962 739.066 3212 119 124 121
797.828 737.686 3206 120 125 122
800.681 737.226 3204 120 125 121
803.781 736.996 3203 119 124 120
806.879 736.766 3202 117 118 112
810.227 736.766 3202 108 109 105
813.576 736.766 3202 98 98 96
817.179 736.996 3203 92 89 87
821.042 737.456 3205 86 87 83
824.908 737.916 3207 86 85 80
828.778 738.376 3209 85 85 79
832.652 738.836 3211 84 83 79
835.75 738.606 3210 83 83 78
836.754 736.535 3201 82 81 78
837.74 734.465 3192 80 84 83
839.497 733.084 3186 84 88 87
841.242 731.703 3180 88 101 101
841.646 729.172 3169 102 118 116
844.96 729.172 3169 116 119 116
842.117 723.88 3146 115 116 116
845.407 723.88 3146 113 117 117
979.091 686.144 2982 132 137 133
980.892 685.224 2978 132 137 133
982.024 683.844 2972 132 137 134
983.806 682.923 2968 132 137 133
985.913 682.233 2965 132 137 133
988.013 681.543 2962 132 137 133
989.772 680.622 2958 132 136 132
990.18 678.781 2950 132 136 132
991.245 677.401 2944 132 136 132
994.323 677.401 2944 132 137 132
997.402 677.401 2944 133 138 131
998.782 676.25 2939 134 139 131
1001.51 676.02 2938 136 140 131
1003.9 675.56 2936 137 140 131
1006.63 675.33 2935 140 141 132
1009.36 675.1 2934 142 142 135
1012.42 675.1 2934 141 144 138
1015.49 675.1 2934 140 143 130
1018.91 675.33 2935 134 136 123
1023.72 676.48 2940 128 124 115
1028.54 677.631 2945 123 114 107
1034.07 679.242 2952 117 116 108
1039.62 680.852 2959 118 117 109
1044.47 682.003 2964 119 118 109
1048.28 682.463 2966 118 118 109
1049.61 681.313 2961 116 115 108
1050.57 679.932 2955 114 113 106
1051.52 678.551 2949 111 113 108
1052.46 677.171 2943 117 113 110
1053.75 676.02 2938 123 123 120
1188.52 618.266 2687 144 144 135
1201.09 623.328 2709 145 148 137
1209.25 626.09 2721 146 148 138
1214.33 627.24 2726 146 147 139
1218.07 627.7 2728 146 147 138
1220.48 627.47 2727 146 147 137
1221.08 626.32 2722 145 147 137
1223.48 626.09 2721 145 146 136
1225.88 625.859 2720 144 146 136
1227.82 625.399 2718 145 146 137
1228.4 624.249 2713 145 146 136
1229.42 623.328 2709 144 145 136
1231.34 622.868 2707 143 144 135
1231.89 621.718 2702 140 141 135
1231.52 620.107 2695 137 139 133
1230.22 618.036 2686 137 136 132
1225.22 614.125 2669 137 140 136
1225.25 612.744 2663 134 140 141
1228.04 612.744 2663 130 127 118
783.031 752.593 3256 234 240 241
783.779 750.05 3245 221 221 213
784.989 747.97 3236 169 179 185
787.399 747.045 3232 118 136 149
789.066 745.427 3225 116 118 112
790.964 744.04 3219 114 116 116
792.603 742.422 3212 117 121 120
795.219 741.729 3209 120 125 122
797.828 741.036 3206 121 125 123
800.431 740.342 3203 122 126 122
803.781 740.342 3203 117 122 120
806.879 740.111 3202 113 117 111
810.227 740.111 3202 103 105 102
813.576 740.111 3202 94 92 94
816.924 740.111 3202 89 88 86
820.529 740.342 3203 85 85 83
824.136 740.573 3204 84 85 80
827.228 740.342 3203 84 84 79
829.8 739.649 3200 83 83 78
831.845 738.493 3195 82 82 78
832.833 736.413 3186 83 82 78
833.541 734.101 3176 84 82 83
835.281 732.715 3170 92 91 87
838.332 732.483 3169 101 105 102
841.646 732.483 3169 107 116 117
844.96 732.483 3169 114 120 116
842.117 727.167 3146 114 117 114
975.973 689.26 2982 133 138 134
976.465 687.411 2974 133 138 134
977.928 686.255 2969 133 138 134
979.381 685.1 2964 133 138 134
980.823 683.944 2959 133 138 134
982.92 683.25 2956 132 137 133
985.344 682.788 2954 132 136 133
986.76 681.633 2949 132 136 132
987.83 680.246 2943 132 136 133
989.898 679.552 2940 132 136 133
992.973 679.552 2940 132 136 132
996.047 679.552 2940 133 138 131
998.782 679.321 2939 135 139 132
1001.51 679.09 2938 136 140 133
1004.25 678.859 2937 137 141 133
1006.97 678.628 2936 139 141 132
1010.04 678.628 2936 140 141 135
1013.11 678.628 2936 140 143 137
1016.18 678.628 2936 140 143 131
1019.95 679.09 2938 135 136 125
1024.41 680.015 2942 129 124 117
1029.24 681.17 2947 122 118 108
1034.07 682.326 2952 116 116 108
1039.27 683.713 2958 117 117 107
1042.71 683.944 2959 118 118 108
1045.81 683.944 2959 116 116 109
1046.77 682.557 2953 115 115 107
1047.37 680.939 2946 113 113 105
1049.38 680.246 2943 112 111 108
1050.32 678.859 2937 118 115 110
1052.31 678.165 2934 124 119 120
1051.42 675.623 2923 130 133 130
1053.4 674.929 2920 136 146 136
1205.96 628.701 2720 145 148 138
1208.81 628.701 2720 147 148 139
1214.77 630.319 2727 147 148 140
1220.75 631.937 2734 147 147 139
1220.48 630.319 2727 146 147 138
1221.53 629.395 2723 145 147 138
1224.38 629.395 2723 145 147 137
1225.88 628.701 2720 145 147 137
1227.82 628.239 2718 145 146 137
1228.85 627.315 2714 145 146 137
1230.32 626.621 2711 144 146 137
1232.25 626.159 2709 144 146 137
1234.17 625.697 2707 141 144 136
1234.26 624.31 2701 139 142 135
1233.88 622.692 2694 138 138 133
1232.56 620.612 2685 137 138 136
1227.09 616.451 2667 135 138 139
1228.04 615.526 2663 134 134 128
782.571 752.28 3240 216 206 199
784.747 751.119 3235 161 163 161
786.424 749.493 3228 105 127 137
788.332 748.1 3222 111 107 113
789.982 746.475 3215 116 117 117
792.357 745.546 3211 118 123 120
794.476 744.385 3206 120 125 121
797.331 743.921 3204 122 125 123
799.932 743.224 3201 123 124 122
803.279 743.224 3201 116 122 121
806.627 743.224 3201 108 113 109
810.227 743.457 3202 99 100 97
813.576 743.457 3202 90 91 89
816.924 743.457 3202 87 84 81
820.017 743.224 3201 83 84 80
821.307 741.367 3193 83 84 79
823.871 740.67 3190 83 84 79
825.392 739.045 3183 82 83 79
827.158 737.652 3177 81 82 79
827.082 734.633 3164 84 81 79
828.554 733.008 3157 87 84 84
831.856 733.008 3157 100 90 90
833.57 731.615 3151 113 108 104
836.865 731.615 3151 113 119 117
838.827 730.454 3146 112 118 117
973.18 692.608 2983 133 137 135
973.354 690.518 2974 133 138 135
972.853 687.964 2963 134 138 135
974.634 687.036 2959 134 138 135
976.076 685.875 2954 134 138 135
977.84 684.946 2950 133 138 134
980.26 684.482 2948 133 136 134
982.342 683.785 2945 132 136 134
984.753 683.321 2943 132 135 133
986.823 682.624 2940 132 136 133
988.888 681.927 2937 132 136 133
991.959 681.927 2937 132 137 132
995.031 681.927 2937 134 137 131
999.462 682.856 2941 135 139 131
1002.54 682.856 2941 136 140 132
1004.59 682.16 2938 137 140 132
1007.66 682.16 2938 138 141 133
1010.73 682.16 2938 138 142 135
1013.8 682.16 2938 139 144 137
1017.22 682.392 2939 140 143 131
1020.64 682.624 2940 135 139 126
1025.46 683.785 2945 130 127 118
1029.24 684.249 2947 122 116 110
1034.07 685.41 2952 114 115 109
1038.21 686.107 2955 115 116 108
1041.65 686.339 2956 116 116 108
1044.04 685.875 2954 115 114 108
1043.94 683.785 2945 114 114 107
1045.24 682.624 2940 113 113 106
1048.32 682.624 2940 112 113 108
1050.32 681.927 2937 119 115 111
1051.24 680.534 2931 125 122 120
1051.42 678.677 2923 131 132 129
1054.48 678.677 2923 136 138 135
1201.97 629.454 2711 145 150 137
1208.81 631.543 2720 148 149 139
1214.77 633.169 2727 148 148 141
1220.3 634.562 2733 147 148 140
1221.37 633.633 2729 146 148 139
1223.33 633.169 2727 145 147 138
1224.38 632.24 2723 145 147 138
1226.33 631.776 2721 145 147 138
1228.27 631.311 2719 145 146 138
1229.3 630.382 2715 145 146 138
1230.32 629.454 2711 145 147 139
1233.16 629.454 2711 144 147 138
1235.08 628.989 2709 143 146 138
1236.55 628.293 2706 141 142 135
1237.09 627.132 2701 139 136 132
1232.56 623.417 2685 137 137 134
1231.69 621.559 2677 137 138 137
1229.88 619.238 2667 137 136 131
781.605 754.732 3236 207 197 186
783.776 753.566 3231 156 145 137
785.45 751.933 3224 105 101 126
787.109 750.3 3217 111 111 114
788.999 748.901 3211 117 120 117
791.123 747.735 3206 119 124 120
793.98 747.268 3204 121 126 121
796.335 746.336 3200 120 125 122
799.682 746.336 3200 120 123 122
803.028 746.336 3200 110 120 121
806.375 746.336 3200 100 112 107
809.974 746.569 3201 93 98 92
813.576 746.802 3202 87 87 84
816.669 746.569 3201 85 85 76
818.48 745.169 3195 84 84 77
820.02 743.537 3188 83 85 78
821.03 741.438 3179 83 84 79
820.983 738.406 3166 82 83 79
822.732 737.006 3160 82 81 79
823.423 734.674 3150 84 82 79
825.667 733.741 3146 86 84 86
828.957 733.741 3146 101 99 93
832.247 733.741 3146 116 117 105
835.537 733.741 3146 114 118 117
970.571 693.859 2975 133 137 136
969.1 690.594 2961 134 137 136
970.226 689.194 2955 134 138 135
972.328 688.495 2952 134 139 135
974.424 687.795 2949 134 138 135
976.845 687.328 2947 134 138 135
979.262 686.862 2945 133 137 135
981.341 686.162 2942 133 137 135
983.414 685.463 2939 133 136 134
985.816 684.996 2937 133 135 134
988.551 684.763 2936 133 137 133
991.622 684.763 2936 133 137 132
994.692 684.763 2936 134 138 131
997.762 684.763 2936 135 140 131
1001.17 684.996 2937 137 140 130
1004.25 684.996 2937 139 139 132
1007.32 684.996 2937 139 141 133
1011.08 685.463 2939 140 143 135
1014.15 685.463 2939 141 145 136
1017.57 685.696 2940 142 146 132
1020.64 685.696 2940 138 139 127
1025.11 686.629 2944 133 130 120
1028.54 686.862 2945 124 119 112
1033.72 688.261 2951 116 113 111
1037.16 688.495 2952 116 116 109
1040.95 688.961 2954 117 117 108
1043.33 688.495 2952 116 115 107
1043.94 686.862 2945 114 113 107
1045.24 685.696 2940 113 113 106
1048.32 685.696 2940 113 113 109
1050.32 684.996 2937 118 116 111
1051.24 683.597 2931 124 122 120
1051.42 681.731 2923 130 129 128
1054.48 681.731 2923 135 128 135
1208.81 634.385 2720 149 150 139
1214.77 636.018 2727 148 149 142
1220.3 637.417 2733 148 148 141
1222.27 636.951 2731 147 148 140
1224.22 636.484 2729 146 146 139
1224.83 635.318 2724 145 147 138
1226.78 634.852 2722 145 146 138
1228.27 634.152 2719 145 145 138
1231.11 634.152 2719 145 145 139
1230.32 632.286 2711 145 147 140
1233.16 632.286 2711 145 148 140
1236 632.286 2711 145 148 139
1237.46 631.586 2708 144 142 135
1237.54 630.187 2702 141 138 131
1235.78 627.855 2692 137 137 133
1233.53 625.289 2681 137 138 134
1236.34 625.289 2681 137 139 134
781.605 758.113 3236 198 182 172
783.776 756.942 3231 152 118 115
784.719 754.599 3221 105 110 114
786.13 752.725 3213 112 115 114
787.77 751.085 3206 118 121 118
790.383 750.382 3203 120 125 122
792.989 749.679 3200 121 126 122
795.34 748.742 3196 119 126 123
798.682 748.742 3196 117 124 119
802.024 748.742 3196 105 121 115
805.619 748.976 3197 92 106 103
809.215 749.21 3198 88 93 90
813.576 750.148 3202 83 87 84
815.904 749.21 3198 84 84 78
817.455 747.57 3191 84 85 79
817.963 744.993 3180 84 86 80
817.156 741.245 3164 83 85 80
819.168 740.074 3159 83 84 80
820.129 737.965 3150 82 83 81
823.423 737.965 3150 83 83 82
825.405 736.794 3145 84 93 90
828.694 736.794 3145 102 104 99
831.983 736.794 3145 119 114 108
956.868 687.128 2933 134 138 137
965.172 690.876 2949 134 138 136
966.943 689.939 2945 134 137 136
969.693 689.705 2944 134 138 135
972.111 689.236 2942 134 138 135
975.188 689.236 2942 134 138 135
977.932 689.002 2941 134 138 136
980.341 688.533 2939 134 138 136
983.414 688.533 2939 134 137 136
985.816 688.065 2937 133 137 135
988.551 687.831 2936 133 138 134
991.622 687.831 2936 133 138 133
994.692 687.831 2936 134 138 133
997.762 687.831 2936 135 139 131
1001.17 688.065 2937 138 139 130
1004.25 688.065 2937 140 140 131
1007.32 688.065 2937 141 142 133
1011.08 688.533 2939 142 144 135
1014.49 688.768 2940 143 145 137
1017.57 688.768 2940 144 144 132
1020.64 688.768 2940 140 141 127
1024.41 689.236 2942 136 128 118
1028.54 689.939 2945 127 118 109
1033.37 691.11 2950 117 116 110
1036.81 691.345 2951 118 117 111
1039.89 691.345 2951 118 117 110
1042.98 691.345 2951 116 116 109
1043.94 689.939 2945 114 114 108
1045.24 688.768 2940 114 113 107
1048.32 688.768 2940 113 113 108
1051.03 688.533 2939 118 113 110
1051.24 686.659 2931 123 119 118
1053.94 686.425 2930 129 132 127
1054.48 684.785 2923 134 137 134
1057.54 684.785 2923 136 141 141
1214.77 638.867 2727 149 149 141
1220.3 640.273 2733 148 149 140
1223.16 640.273 2733 147 148 140
1226.92 640.741 2735 146 147 139
1226.63 639.101 2728 146 147 138
1227.68 638.164 2724 145 146 137
1229.17 637.461 2721 145 144 137
1231.11 636.993 2719 145 145 137
1233.05 636.524 2717 146 146 138
1233.61 635.353 2712 146 150 139
1236 635.119 2711 147 155 140
1238.37 634.884 2710 147 146 136
1237.54 633.01 2702 142 137 133
1240.37 633.01 2702 137 137 134
1235.37 629.028 2685 137 138 134
1236.34 628.09 2681 137 139 135
1239.14 628.09 2681 137 139 136
783.776 760.317 3231 141 127 92
784.719 757.964 3221 108 104 103
785.885 755.846 3212 114 116 114
787.033 753.728 3203 120 123 119
789.395 752.787 3199 121 125 123
791.997 752.081 3196 122 125 124
794.593 751.375 3193 119 126 124
797.932 751.375 3193 116 125 117
801.272 751.375 3193 104 113 109
804.863 751.611 3194 92 97 99
808.962 752.316 3197 87 89 88
812.559 752.552 3198 82 82 84
814.628 751.375 3193 83 85 80
815.918 749.493 3185 85 87 81
816.162 746.669 3173 84 86 82
815.865 743.374 3159 83 85 81
816.834 741.256 3150 82 84 80
819.868 741.021 3149 82 85 82
821.854 739.845 3144 84 91 84
824.092 738.903 3140 87 100 94
956.868 690.192 2933 135 139 137
960.263 690.427 2934 135 138 137
964.973 691.604 2939 134 138 136
968.047 691.604 2939 134 138 136
971.12 691.604 2939 134 138 135
974.194 691.604 2939 134 138 136
977.267 691.604 2939 134 138 136
980.341 691.604 2939 134 138 137
983.414 691.604 2939 134 138 137
985.816 691.133 2937 135 138 136
988.551 690.898 2936 135 139 135
991.622 690.898 2936 135 140 135
994.692 690.898 2936 135 140 134
997.762 690.898 2936 135 139 132
1001.17 691.133 2937 138 140 129
1004.25 691.133 2937 140 141 131
1007.32 691.133 2937 142 142 132
1011.08 691.604 2939 144 144 135
1014.15 691.604 2939 144 144 137
1017.22 691.604 2939 145 143 132
1020.3 691.604 2939 140 136 126
1024.41 692.31 2942 136 124 116
1027.49 692.31 2942 127 119 106
1032.67 693.722 2948 117 117 109
1035.75 693.722 2948 118 118 112
1039.54 694.193 2950 119 118 111
1042.63 694.193 2950 116 116 110
1045 693.722 2948 114 114 109
1047.02 693.016 2945 115 114 108
1049.38 692.545 2943 115 114 108
1052.1 692.31 2942 119 115 108
1054.11 691.604 2939 123 109 117
1057.18 691.604 2939 128 129 125
1060.25 691.604 2939 134 145 133
1057.54 687.839 2923 136 143 141
1221.2 643.599 2735 148 149 140
1225.85 644.54 2739 147 148 139
1227.81 644.07 2737 146 148 139
1229.78 643.599 2735 145 147 138
1229.48 641.952 2728 145 145 137
1230.53 641.01 2724 144 144 135
1232.02 640.304 2721 144 143 136
1233.05 639.363 2717 145 146 136
1234.98 638.892 2715 145 150 138
1236.45 638.187 2712 146 151 140
1238.83 637.951 2711 148 149 138
1239.38 636.775 2706 143 142 135
1240.37 635.833 2702 139 135 135
1239.97 634.186 2695 138 137 134
1238.64 632.068 2686 138 138 136
1239.14 630.892 2681 138 139 137
783.776 763.693 3231 131 102 98
784.232 760.857 3219 110 111 108
784.907 758.257 3208 116 120 117
786.05 756.129 3199 121 123 120
788.162 754.948 3194 122 125 123
791.006 754.475 3192 122 126 124
793.847 754.002 3190 119 128 125
797.183 754.002 3190 115 121 117
800.519 754.002 3190 104 109 110
803.855 754.002 3190 92 95 99
808.203 754.948 3194 87 82 88
811.543 754.948 3194 81 84 84
813.353 753.529 3188 83 87 80
814.893 751.875 3181 85 87 80
814.619 748.566 3167 84 86 81
814.315 745.257 3153 83 84 80
816.316 744.075 3148 82 83 80
817.525 742.184 3140 81 87 84
819.24 740.766 3134 85 94 88
954.911 691.838 2927 136 139 137
959.936 693.257 2933 135 138 137
963.003 693.257 2933 135 137 136
966.07 693.257 2933 134 137 136
969.137 693.257 2933 134 137 136
972.868 693.729 2935 134 137 136
976.935 694.438 2938 134 137 136
980.007 694.438 2938 134 138 137
983.08 694.438 2938 135 138 137
985.816 694.202 2937 136 138 136
988.551 693.966 2936 136 139 136
991.622 693.966 2936 136 140 135
994.692 693.966 2936 136 141 135
997.762 693.966 2936 135 140 133
1001.17 694.202 2937 138 139 132
1004.25 694.202 2937 140 141 132
1007.66 694.438 2938 143 142 133
1010.73 694.438 2938 145 144 135
1013.8 694.438 2938 145 145 137
1016.88 694.438 2938 145 143 133
1019.95 694.438 2938 141 134 129
1024.41 695.384 2942 136 124 118
1027.49 695.384 2942 127 115 108
1031.62 696.093 2945 117 117 110
1035.4 696.566 2947 118 119 113
1038.84 696.802 2948 119 118 111
1041.92 696.802 2948 117 117 110
1045.36 697.038 2949 114 115 109
1047.73 696.566 2947 116 113 109
1050.1 696.093 2945 117 117 108
1053.18 696.093 2945 120 123 108
1055.9 695.857 2944 123 122 116
1058.98 695.857 2944 128 128 124
1062.06 695.857 2944 133 136 133
1057.54 690.893 2923 137 142 142
1224.06 646.456 2735 146 148 139
1226.92 646.456 2735 145 147 138
1229.78 646.456 2735 145 146 137
1230.38 645.275 2730 144 145 136
1232.33 644.802 2728 144 144 135
1233.38 643.856 2724 143 144 135
1233.96 642.675 2719 144 143 136
1235.89 642.202 2717 144 146 138
1236.91 641.256 2713 146 148 140
1238.83 640.784 2711 148 147 139
1241.67 640.784 2711 145 145 138
1241.75 639.365 2705 141 140 137
1228.01 630.856 2669 140 135 136
1230.8 630.856 2669 138 137 136
1233.59 630.856 2669 138 138 137
782.77 762.796 3213 113 116 112
782.949 759.709 3200 117 120 120
784.576 758.047 3193 121 123 122
786.928 757.098 3189 122 124 123
789.519 756.386 3186 123 125 125
792.851 756.386 3186 119 126 126
796.183 756.386 3186 115 122 118
799.515 756.386 3186 104 106 110
802.847 756.386 3186 93 90 99
807.191 757.335 3190 87 84 88
810.527 757.335 3190 81 83 84
811.822 755.436 3182 82 85 79
813.869 754.249 3177 84 86 79
813.075 750.45 3161 84 85 79
814.315 748.551 3153 84 83 80
814.76 745.94 3142 84 83 80
815.963 744.04 3134 85 85 86
954.911 694.897 2927 135 139 137
957.972 694.897 2927 135 138 137
961.033 694.897 2927 134 137 136
964.423 695.134 2928 134 137 136
968.807 696.084 2932 134 137 136
972.205 696.321 2933 134 137 136
975.937 696.796 2935 134 137 136
979.673 697.271 2937 134 137 137
983.08 697.508 2938 135 138 137
986.152 697.508 2938 135 138 137
989.561 697.745 2939 135 139 136
992.635 697.745 2939 136 138 136
995.708 697.745 2939 135 139 135
998.442 697.508 2938 135 139 135
1001.51 697.508 2938 136 140 134
1004.59 697.508 2938 138 141 134
1008 697.745 2939 141 143 133
1010.73 697.508 2938 144 144 135
1013.46 697.271 2937 145 146 137
1016.53 697.271 2937 146 148 134
1019.6 697.271 2937 142 138 131
1023.37 697.745 2939 138 124 120
1027.49 698.458 2942 127 118 109
1030.92 698.695 2943 116 115 111
1034.35 698.932 2944 117 118 113
1037.43 698.932 2944 119 119 112
1041.21 699.407 2946 116 117 110
1044.65 699.645 2947 114 116 110
1048.44 700.12 2949 116 115 109
1051.88 700.357 2950 118 117 108
1054.97 700.357 2950 121 122 107
1058.05 700.357 2950 123 127 115
1061.14 700.357 2950 128 127 123
1064.22 700.357 2950 132 128 133
1065.14 698.932 2944 136 137 143
1221.37 647.89 2729 147 149 138
1226.92 649.314 2735 146 147 137
1228.88 648.839 2733 145 146 136
1231.28 648.602 2732 144 145 136
1233.24 648.127 2730 144 145 135
1233.38 646.703 2724 143 144 135
1234.86 645.99 2721 143 143 135
1236.34 645.278 2718 144 143 137
1237.82 644.566 2715 145 146 139
1239.29 643.854 2712 147 146 140
1241.21 643.379 2710 145 146 140
1244.04 643.379 2710 143 146 139
1228.01 633.645 2669 141 140 137
1230.8 633.645 2669 139 138 137
1233.59 633.645 2669 139 138 136
779.846 763.291 3201 115 116 115
780.992 761.145 3192 118 120 120
782.856 759.714 3186 120 123 122
785.447 758.999 3183 122 124 123
787.289 757.568 3177 123 126 125
790.612 757.568 3177 119 128 126
793.934 757.568 3177 115 118 115
797.256 757.568 3177 104 103 104
801.839 758.761 3182 93 89 94
806.179 759.714 3186 87 81 83
809.51 759.714 3186 80 83 81
810.801 757.807 3178 81 84 79
813.869 757.568 3177 82 85 79
813.075 753.753 3161 83 84 79
813.799 751.368 3151 84 83 80
812.685 747.315 3134 86 82 81
957.972 697.955 2927 134 138 135
961.033 697.955 2927 134 137 135
964.094 697.955 2927 134 137 136
967.485 698.193 2928 134 138 136
971.873 699.147 2932 134 138 136
975.937 699.862 2935 134 138 136
979.673 700.339 2937 134 138 136
983.08 700.578 2938 134 137 136
986.152 700.578 2938 134 139 136
989.561 700.816 2939 135 141 137
993.31 701.293 2941 135 140 136
996.725 701.532 2942 135 139 135
999.122 701.055 2940 134 139 134
1002.2 701.055 2940 135 139 134
1005.27 701.055 2940 136 141 134
1008.69 701.293 2941 139 143 134
1010.73 700.578 2938 142 144 135
1013.46 700.339 2937 144 147 137
1015.84 699.862 2935 146 147 135
1018.91 699.862 2935 143 145 133
1021.98 699.862 2935 140 131 122
1026.44 700.816 2939 128 119 111
1029.52 700.816 2939 115 117 112
1032.59 700.816 2939 117 118 112
1036.37 701.293 2941 118 118 111
1040.15 701.77 2943 116 117 109
1043.58 702.008 2944 114 115 109
1047.37 702.485 2946 117 114 109
1051.17 702.962 2948 119 117 109
1054.61 703.201 2949 121 120 108
1057.33 702.962 2948 123 122 115
1060.06 702.724 2947 127 124 122
1063.14 702.724 2947 131 131 132
1066.22 702.724 2947 136 137 143
1221.37 650.741 2729 147 149 139
1226.92 652.172 2735 146 147 138
1228.88 651.695 2733 145 146 138
1231.28 651.456 2732 144 147 137
1233.24 650.979 2730 144 146 137
1232.02 648.833 2721 143 144 136
1233.96 648.356 2719 143 143 136
1235.89 647.879 2717 143 144 137
1237.36 647.164 2714 145 145 139
1239.29 646.687 2712 146 146 140
1240.29 645.733 2708 145 147 141
1243.12 645.733 2708 144 146 139
1228.01 636.434 2669 142 142 138
1227.57 634.764 2662 140 139 137
1230.36 634.764 2662 139 137 137
777.897 764.72 3193 118 118 117
778.545 762.085 3182 119 121 120
780.399 760.648 3176 121 123 122
783.72 760.648 3176 122 125 123
786.793 760.409 3175 124 127 125
790.114 760.409 3175 118 125 126
793.434 760.409 3175 112 118 112
797.005 760.648 3176 101 100 98
800.579 760.888 3177 91 83 88
805.166 762.085 3182 86 83 78
809.002 762.564 3184 80 83 78
810.801 761.127 3178 81 84 78
813.869 760.888 3177 82 84 78
810.503 754.661 3151 83 84 78
813.799 754.661 3151 84 83 80
960.376 700.534 2925 134 138 134
963.435 700.534 2925 135 137 135
966.494 700.534 2925 135 138 136
971.542 701.971 2931 135 138 136
975.937 702.929 2935 135 138 136
979.673 703.408 2937 135 138 135
983.08 703.647 2938 135 138 134
986.152 703.647 2938 135 139 136
990.235 704.366 2941 135 140 137
994.323 705.084 2944 136 140 136
997.741 705.324 2945 136 140 134
999.801 704.605 2942 136 140 134
1002.88 704.605 2942 136 140 134
1005.95 704.605 2942 137 140 134
1009.03 704.605 2942 139 141 134
1010.73 703.647 2938 142 142 136
1012.77 702.929 2935 144 145 137
1015.49 702.689 2934 146 148 136
1018.56 702.689 2934 143 144 135
1021.63 702.689 2934 141 134 124
1025.05 702.929 2935 128 123 113
1028.12 702.929 2935 115 116 112
1031.54 703.168 2936 116 117 111
1035.31 703.647 2938 117 117 110
1039.09 704.126 2940 116 116 108
1042.52 704.366 2941 115 114 109
1045.95 704.605 2942 116 115 109
1050.1 705.324 2945 117 115 109
1053.54 705.563 2946 119 117 109
1056.26 705.324 2945 122 115 115
1058.62 704.845 2943 126 125 121
1061.7 704.845 2943 131 135 132
1064.77 704.845 2943 136 140 142
1221.37 653.592 2729 147 146 139
1226.92 655.029 2735 147 147 139
1228.88 654.55 2733 146 147 139
1231.73 654.55 2733 145 149 139
1229.17 651.676 2721 145 147 138
1231.11 651.197 2719 144 144 138
1233.5 650.958 2718 144 144 137
1234.98 650.239 2715 144 144 138
1237.36 650 2714 145 146 138
1238.37 649.042 2710 146 147 140
1240.29 648.563 2708 146 147 141
1241.29 647.605 2704 145 147 140
1228.01 639.222 2669 143 144 139
1227.57 637.546 2662 141 140 138
1230.36 637.546 2662 140 138 137
1233.14 637.546 2662 139 137 137
776.679 766.853 3188 120 119 119
777.077 763.966 3176 121 124 122
779.661 763.245 3173 121 125 123
782.98 763.245 3173 123 126 124
786.298 763.245 3173 124 127 123
789.616 763.245 3173 116 125 122
793.184 763.485 3174 108 113 109
796.755 763.726 3175 99 97 96
800.327 763.966 3176 89 87 87
803.901 764.207 3177 85 83 78
807.478 764.448 3178 80 84 78
810.801 764.448 3178 81 84 78
813.869 764.207 3177 81 84 78
810.503 757.953 3151 82 84 78
962.447 702.868 2922 135 138 135
966.494 703.59 2925 135 138 136
970.216 704.071 2927 135 139 136
974.94 705.274 2932 135 139 136
979.006 705.995 2935 135 139 135
983.08 706.717 2938 136 138 135
987.159 707.439 2941 136 139 136
991.245 708.16 2944 136 140 138
994.999 708.641 2946 136 140 136
999.096 709.363 2949 137 141 135
1001.16 708.641 2946 137 141 135
1004.24 708.641 2946 137 141 135
1006.98 708.401 2945 137 141 134
1010.06 708.401 2945 139 140 134
1010.73 706.717 2938 141 142 135
1012.77 705.995 2935 143 142 137
1015.49 705.755 2934 145 147 136
1018.56 705.755 2934 144 148 136
1021.63 705.755 2934 142 135 125
1024.7 705.755 2934 128 123 114
1027.77 705.755 2934 114 118 112
1031.19 705.995 2935 115 116 110
1034.61 706.236 2936 116 116 109
1038.38 706.717 2938 116 116 108
1041.81 706.958 2939 115 115 108
1045.24 707.198 2940 115 115 109
1048.67 707.439 2941 115 116 109
1052.1 707.679 2942 118 117 109
1054.46 707.198 2940 120 119 114
1057.18 706.958 2939 125 126 119
1060.25 706.958 2939 130 135 130
1063.33 706.958 2939 135 143 141
1223.16 657.406 2733 148 144 139
1228.71 658.849 2739 148 147 139
1230.68 658.368 2737 147 147 140
1233.54 658.368 2737 146 149 139
1228.27 654.038 2719 146 149 139
1230.66 653.797 2718 145 147 138
1232.59 653.316 2716 145 146 138
1234.52 652.835 2714 144 146 138
1235.54 651.873 2710 145 146 139
1237.92 651.633 2709 146 147 140
1239.83 651.152 2707 146 148 141
1241.29 650.43 2704 146 148 140
1228.93 642.492 2671 144 146 140
1227.57 640.327 2662 142 143 138
1230.36 640.327 2662 141 139 137
1233.14 640.327 2662 139 138 137
775.948 769.459 3185 121 122 121
776.343 766.56 3173 122 124 124
779.661 766.56 3173 123 125 125
782.98 766.56 3173 122 127 125
786.298 766.56 3173 122 129 121
789.616 766.56 3173 112 122 117
792.934 766.56 3173 103 112 106
796.755 767.043 3175 95 96 94
800.075 767.043 3175 86 83 86
803.901 767.526 3177 84 85 78
807.478 767.768 3178 81 84 78
810.801 767.768 3178 81 84 78
813.869 767.526 3177 82 84 78
810.503 761.245 3151 83 84 78
960.471 704.472 2916 135 139 135
965.503 705.921 2922 135 139 135
969.553 706.646 2925 135 139 135
974.274 707.854 2930 135 139 135
978.006 708.337 2932 135 139 135
982.076 709.062 2935 136 139 135
986.488 710.028 2939 137 140 137
991.918 711.719 2946 137 140 138
996.35 712.686 2950 137 140 137
1000.11 713.169 2952 137 141 136
1002.18 712.444 2949 137 141 136
1004.92 712.203 2948 137 141 135
1008.01 712.203 2948 138 141 135
1010.75 711.961 2947 139 142 134
1011.42 710.27 2940 141 143 135
1012.77 709.062 2935 143 144 136
1015.49 708.82 2934 145 148 136
1017.52 708.096 2931 144 145 136
1020.24 707.854 2930 143 136 125
1023.3 707.854 2930 128 125 114
1026.36 707.854 2930 114 115 112
1030.83 708.82 2934 115 115 109
1034.61 709.304 2936 116 116 108
1037.68 709.304 2936 115 116 107
1041.46 709.787 2938 115 115 108
1044.53 709.787 2938 115 116 109
1047.96 710.028 2939 115 117 109
1051.03 710.028 2939 118 116 108
1053.39 709.545 2937 121 116 112
1055.74 709.062 2935 127 125 116
1058.45 708.82 2934 133 136 128
1061.52 708.82 2934 136 140 139
1226.02 660.261 2733 147 149 140
1228.88 660.261 2733 147 149 141
1231.73 660.261 2733 147 149 140
1227.37 656.396 2717 146 149 139
1228.85 655.671 2714 146 148 139
1230.78 655.188 2712 145 147 138
1232.71 654.705 2710 145 147 139
1235.08 654.463 2709 145 147 139
1237 653.98 2707 146 147 140
1238.46 653.255 2704 146 148 140
1239.91 652.53 2701 147 149 140
1232.61 647.215 2679 145 147 140
1233.11 646.007 2674 144 145 139
1231.74 643.833 2665 141 142 137
1234.53 643.833 2665 138 139 136
775.705 772.544 3184 122 122 122
776.343 769.875 3173 123 126 125
779.661 769.875 3173 124 127 126
782.98 769.875 3173 122 129 128
786.298 769.875 3173 119 126 121
789.616 769.875 3173 109 120 114
792.934 769.875 3173 98 104 103
796.755 770.361 3175 91 90 92
800.075 770.361 3175 83 87 85
803.648 770.603 3176 83 88 79
807.224 770.846 3177 82 86 78
810.546 770.846 3177 82 85 78
813.869 770.846 3177 82 84 78
817.191 770.846 3177 83 84 78
960.471 707.518 2916 134 139 134
965.503 708.974 2922 134 139 134
968.89 709.217 2923 134 138 134
973.277 710.188 2927 135 139 135
977.005 710.673 2929 135 139 135
981.072 711.401 2932 136 139 136
985.145 712.129 2935 137 140 137
990.235 713.584 2941 137 141 138
994.999 714.798 2946 137 141 137
999.435 715.768 2950 137 141 136
1002.52 715.768 2950 137 141 136
1005.61 715.768 2950 138 142 135
1008.69 715.768 2950 138 142 135
1011.78 715.768 2950 139 142 134
1012.11 713.827 2942 140 143 135
1013.46 712.614 2937 142 144 136
1015.84 712.129 2935 144 146 136
1017.52 711.158 2931 144 147 137
1020.24 710.915 2930 143 137 126
1023.3 710.915 2930 128 124 116
1026.36 710.915 2930 113 117 113
1029.43 710.915 2930 114 114 110
1033.9 711.886 2934 115 115 109
1037.32 712.129 2935 115 116 108
1040.39 712.129 2935 114 115 108
1043.46 712.129 2935 114 115 108
1046.53 712.129 2935 114 115 108
1049.24 711.886 2934 118 114 107
1051.24 711.158 2931 121 116 111
1053.94 710.915 2930 128 120 115
1057.01 710.915 2930 135 131 127
1060.07 710.915 2930 137 138 139
1219.74 659.72 2719 146 149 140
1224.83 660.933 2724 147 149 142
1227.68 660.933 2724 147 149 141
1227.37 659.234 2717 147 148 140
1228.85 658.507 2714 146 148 139
1230.78 658.021 2712 146 148 138
1232.71 657.536 2710 145 148 139
1232.8 656.08 2704 146 148 139
1234.72 655.595 2702 146 148 140
1237.09 655.352 2701 147 149 140
1238.99 654.867 2699 147 149 140
1236.75 652.198 2688 146 149 141
1235.88 650.257 2680 145 147 140
1235.9 648.801 2674 141 146 139
1235.46 647.103 2667 137 143 136
1235.93 645.89 2662 136 139 134
775.705 775.871 3184 122 125 122
776.343 773.19 3173 123 127 125
779.661 773.19 3173 125 128 128
782.98 773.19 3173 122 128 130
786.298 773.19 3173 119 127 121
789.616 773.19 3173 108 112 111
792.934 773.19 3173 97 93 100
796.755 773.678 3175 89 88 89
800.075 773.678 3175 82 87 84
803.648 773.922 3176 82 86 79
806.97 773.922 3176 83 85 79
810.291 773.922 3176 82 85 78
813.612 773.922 3176 82 84 78
817.448 774.409 3178 82 83 78
960.471 710.565 2916 134 138 133
965.503 712.027 2922 134 137 132
968.89 712.271 2923 134 136 133
973.277 713.246 2927 135 138 134
976.338 713.246 2927 135 139 135
980.068 713.733 2929 136 139 136
984.138 714.464 2932 136 140 137
988.888 715.682 2937 137 141 137
993.31 716.657 2941 138 142 137
998.08 717.876 2946 137 142 136
1001.5 718.119 2947 137 141 136
1004.58 718.119 2947 138 142 135
1007.66 718.119 2947 138 144 135
1011.09 718.363 2948 139 143 134
1012.8 717.388 2944 140 144 135
1013.8 715.926 2938 142 144 136
1015.84 715.195 2935 143 146 137
1017.17 713.977 2930 143 145 137
1019.54 713.489 2928 143 139 127
1022.6 713.489 2928 129 126 117
1025.66 713.489 2928 114 115 114
1028.73 713.489 2928 115 115 110
1032.14 713.733 2929 116 115 109
1035.56 713.977 2930 115 115 108
1038.62 713.977 2930 115 115 108
1041.33 713.733 2929 114 115 107
1044.39 713.733 2929 114 115 107
1047.46 713.733 2929 116 114 106
1049.8 713.246 2927 118 113 110
1052.86 713.246 2927 124 120 113
1055.92 713.246 2927 130 128 126
1058.98 713.246 2927 133 137 138
1219.74 662.561 2719 143 151 140
1221.68 662.073 2717 145 150 142
1224.52 662.073 2717 147 149 141
1227.37 662.073 2717 147 148 140
1228.85 661.342 2714 146 147 139
1230.78 660.855 2712 146 147 138
1232.71 660.368 2710 145 147 139
1230.07 657.443 2698 145 147 139
1231.98 656.956 2696 146 148 140
1234.8 656.956 2696 146 148 140
1237.16 656.712 2695 146 148 141
1238.59 655.981 2692 146 149 141
1238.18 654.276 2685 146 149 141
1236.83 652.083 2676 144 148 140
1236.38 650.377 2669 142 146 137
1235.93 648.671 2662 140 140 133
1236.38 647.453 2657 139 138 135
774.801 781.645 3194 118 122 120
775.705 779.198 3184 121 125 123
776.343 776.506 3173 124 128 126
779.661 776.506 3173 126 129 127
782.98 776.506 3173 123 129 128
786.298 776.506 3173 119 122 117
789.616 776.506 3173 107 108 107
793.184 776.75 3174 95 91 97
796.755 776.995 3175 88 82 86
800.327 777.24 3176 80 84 83
803.648 777.24 3176 82 84 79
806.207 776.506 3173 83 85 79
809.526 776.506 3173 83 85 78
812.844 776.506 3173 82 84 79
816.419 776.75 3174 82 82 79
960.471 713.612 2916 134 138 134
965.503 715.08 2922 134 136 133
968.89 715.325 2923 134 137 133
972.944 716.059 2926 135 138 134
976.004 716.059 2926 135 139 134
979.399 716.304 2927 135 139 134
983.131 716.793 2929 135 140 135
987.204 717.527 2932 137 141 136
991.959 718.751 2937 138 142 136
996.047 719.485 2940 138 142 136
1000.48 720.464 2944 137 142 135
1003.56 720.464 2944 138 141 135
1006.64 720.464 2944 138 143 135
1009.72 720.464 2944 139 143 134
1011.76 719.73 2941 140 143 135
1013.11 718.506 2936 141 143 136
1014.45 717.283 2931 142 145 137
1015.44 715.814 2925 143 146 138
1018.15 715.57 2924 143 138 128
1021.2 715.57 2924 129 126 119
1024.26 715.57 2924 115 118 115
1027.32 715.57 2924 116 114 111
1031.08 716.059 2926 116 115 109
1034.85 716.549 2928 116 115 108
1037.56 716.304 2927 116 115 108
1040.26 716.059 2926 115 114 107
1042.97 715.814 2925 113 114 108
1046.03 715.814 2925 114 113 108
1048.73 715.57 2924 115 115 113
1051.06 715.08 2922 120 117 117
1053.04 714.346 2919 124 129 129
1055.37 713.857 2917 129 141 141
1214.8 662.71 2708 140 146 139
1218.98 663.444 2711 144 150 141
1221.82 663.444 2711 147 149 141
1224.65 663.444 2711 147 148 140
1227.49 663.444 2711 146 148 140
1230.32 663.444 2711 146 147 139
1233.61 663.688 2712 145 147 139
1230.07 660.262 2698 145 146 139
1231.98 659.773 2696 145 147 139
1234.8 659.773 2696 145 147 140
1237.16 659.528 2695 145 148 140
1238.59 658.794 2692 146 148 141
1237.72 656.836 2684 146 149 141
1238.68 655.857 2680 146 149 141
1236.85 653.41 2670 146 145 138
1235.93 651.452 2662 145 138 135
1237.31 650.718 2659 143 140 135
774.316 784.49 3192 117 124 121
775.705 782.524 3184 121 126 124
776.832 780.312 3175 122 128 126
779.907 780.067 3174 124 130 126
783.226 780.067 3174 120 128 125
786.546 780.067 3174 116 125 114
789.865 780.067 3174 106 104 103
793.434 780.312 3175 95 82 93
796.253 779.821 3173 88 82 83
799.319 779.575 3172 82 83 81
802.383 779.329 3171 82 84 79
805.191 778.838 3169 83 84 79
808.505 778.838 3169 83 85 78
811.819 778.838 3169 83 84 79
816.162 779.821 3173 82 84 80
960.471 716.659 2916 134 138 134
965.503 718.133 2922 134 138 133
968.89 718.379 2923 135 137 134
972.279 718.625 2924 135 138 134
975.337 718.625 2924 135 138 133
978.395 718.625 2924 135 138 131
982.124 719.116 2926 135 138 133
986.194 719.854 2929 136 139 134
990.271 720.591 2932 138 141 135
994.353 721.328 2935 137 142 135
998.782 722.311 2939 137 142 135
1002.2 722.557 2940 138 142 135
1005.27 722.557 2940 138 142 135
1008.69 722.803 2941 139 142 134
1010.04 721.574 2936 140 142 135
1011.73 720.591 2932 141 143 136
1012.38 718.871 2925 142 144 137
1014.74 718.379 2923 143 145 138
1016.75 717.642 2920 144 142 130
1019.81 717.642 2920 130 129 121
1022.86 717.642 2920 116 117 116
1025.92 717.642 2920 116 117 111
1029.67 718.133 2922 116 117 110
1033.44 718.625 2924 116 116 108
1036.85 718.871 2925 116 115 108
1039.55 718.625 2924 116 114 107
1042.61 718.625 2924 115 114 109
1045.67 718.625 2924 117 115 110
1048.37 718.379 2923 118 116 116
1050.34 717.642 2920 122 121 121
1052.68 717.15 2918 126 130 132
1215.84 664.556 2704 142 147 140
1218.66 664.556 2704 147 149 140
1221.94 664.802 2705 146 149 140
1224.77 664.802 2705 146 148 140
1227.6 664.802 2705 146 148 140
1230.89 665.047 2706 146 147 140
1230.07 663.081 2698 146 147 139
1231.98 662.59 2696 146 146 139
1234.8 662.59 2696 146 147 139
1237.16 662.344 2695 146 147 140
1238.59 661.607 2692 146 148 140
1237.72 659.641 2684 146 148 141
1238.68 658.657 2680 146 148 141
1236.85 656.2 2670 147 147 139
1237.78 655.217 2666 145 142 137
1237.31 653.496 2659 143 141 136
1240.09 653.496 2659 141 143 135
774.316 787.826 3192 116 124 122
775.705 785.851 3184 120 127 124
776.832 783.63 3175 121 128 126
780.153 783.63 3175 121 128 124
783.473 783.63 3175 117 128 123
786.793 783.63 3175 113 117 112
790.363 783.877 3176 104 100 101
792.934 783.136 3173 95 87 91
795.751 782.643 3171 89 80 82
798.311 781.902 3168 83 84 81
801.624 781.902 3168 83 85 80
804.683 781.655 3167 83 85 79
807.995 781.655 3167 83 85 79
811.307 781.655 3167 83 86 80
814.619 781.655 3167 83 87 81
959.391 721.186 2922 135 138 135
962.447 721.186 2922 134 139 134
965.503 721.186 2922 135 139 134
968.559 721.186 2922 135 138 134
971.614 721.186 2922 135 138 135
974.67 721.186 2922 135 138 133
977.726 721.186 2922 135 137 132
981.117 721.433 2923 135 138 133
985.184 722.173 2926 136 137 134
988.92 722.667 2928 137 140 134
992.998 723.408 2931 137 142 135
997.083 724.148 2934 137 142 135
1000.83 724.642 2936 138 141 135
1003.9 724.642 2936 138 142 135
1007.32 724.888 2937 139 142 134
1009.01 723.901 2933 139 142 135
1010.7 722.914 2929 140 142 135
1012.03 721.68 2924 141 144 136
1013.01 720.199 2918 143 146 138
1015.71 719.952 2917 144 141 129
1018.76 719.952 2917 131 130 120
1021.81 719.952 2917 117 121 115
1024.86 719.952 2917 117 118 111
1028.62 720.446 2919 116 117 110
1032.73 721.186 2922 116 116 109
1036.14 721.433 2923 116 115 108
1038.84 721.186 2922 117 114 108
1041.9 721.186 2922 117 115 109
1044.95 721.186 2922 119 115 110
1048.37 721.433 2923 121 118 115
1050.34 720.693 2920 125 121 120
1052.68 720.199 2918 128 130 132
1218.21 667.134 2703 146 149 139
1220.14 666.641 2701 146 150 141
1222.96 666.641 2701 146 149 141
1225.79 666.641 2701 147 148 142
1228.61 666.641 2701 147 148 141
1231.89 666.887 2702 147 148 140
1234.72 666.887 2702 146 147 139
1238 667.134 2703 146 147 139
1240.37 666.887 2702 146 147 139
1242.73 666.641 2701 146 148 140
1237.72 662.445 2684 146 148 140
1238.68 661.458 2680 147 148 141
1238.24 659.73 2673 147 147 139
1238.25 658.249 2667 145 143 138
1240.57 658.002 2666 142 142 137
1241.03 656.768 2661 141 140 137
1242.88 656.274 2659 140 141 136
774.316 791.161 3192 117 125 123
775.705 789.178 3184 121 129 125
777.077 787.195 3176 121 128 126
780.399 787.195 3176 122 127 123
783.72 787.195 3176 116 122 120
787.041 787.195 3176 110 116 109
790.363 787.195 3176 102 101 98
792.934 786.451 3173 94 86 89
794.998 785.212 3168 89 85 80
797.303 784.221 3164 84 87 80
800.359 783.973 3163 83 85 80
803.158 783.477 3161 82 85 80
806.464 783.477 3161 82 86 80
809.77 783.477 3161 82 88 81
813.075 783.477 3161 83 88 82
960.376 724.983 2925 134 139 134
963.765 725.231 2926 134 139 134
966.824 725.231 2926 135 139 134
968.227 723.991 2921 135 139 135
970.949 723.743 2920 135 139 135
974.003 723.743 2920 135 139 134
977.057 723.743 2920 135 139 133
980.11 723.743 2920 136 139 133
984.174 724.487 2923 137 140 133
988.244 725.231 2926 137 141 134
991.982 725.726 2928 137 141 135
996.063 726.47 2931 137 141 135
999.81 726.966 2933 137 141 135
1003.56 727.461 2935 138 142 135
1006.63 727.461 2935 138 142 134
1007.98 726.222 2930 139 142 134
1010.01 725.478 2927 140 143 134
1011.34 724.239 2922 141 143 136
1012.66 723 2917 142 145 137
1015.71 723 2917 144 144 128
1018.41 722.752 2916 131 130 118
1021.46 722.752 2916 119 117 115
1024.51 722.752 2916 118 117 111
1027.91 723 2917 117 116 110
1031.67 723.496 2919 117 116 109
1035.43 723.991 2921 117 115 109
1038.84 724.239 2922 117 116 108
1041.9 724.239 2922 117 116 109
1044.95 724.239 2922 119 117 110
1048.01 724.239 2922 121 119 115
1050.34 723.743 2920 124 121 119
1052.68 723.248 2918 127 126 131
1219.79 667.728 2694 146 151 142
1222.61 667.728 2694 146 150 143
1225.43 667.728 2694 146 150 142
1229.61 668.471 2697 146 149 140
1232.89 668.719 2698 146 148 140
1235.71 668.719 2698 146 148 139
1238.53 668.719 2698 146 147 139
1240.43 668.223 2696 145 148 139
1242.33 667.728 2694 145 148 140
1243.76 666.984 2691 146 149 140
1244.26 665.745 2686 147 149 139
1245.21 664.753 2682 145 145 138
1245.22 663.266 2676 142 142 138
1247.56 663.018 2675 141 139 138
1250.35 663.018 2675 141 131 138
774.316 794.496 3192 117 128 124
775.705 792.504 3184 121 128 125
777.566 791.011 3178 122 128 127
780.399 790.513 3176 122 124 122
783.72 790.513 3176 115 115 118
787.041 790.513 3176 107 112 107
790.363 790.513 3176 100 100 97
792.684 789.518 3172 92 90 89
793.994 787.526 3164 89 88 81
796.799 787.029 3162 85 85 80
799.347 786.282 3159 83 83 79
801.888 785.535 3156 80 83 80
805.188 785.535 3156 80 84 80
807.977 785.037 3154 80 84 82
811.018 784.789 3153 84 87 83
814.315 784.789 3153 87 91 96
962.346 729.532 2931 134 139 134
964.423 728.786 2928 134 139 134
966.824 728.288 2926 135 139 134
968.227 727.043 2921 135 139 134
970.949 726.794 2920 135 140 135
974.003 726.794 2920 134 140 135
977.057 726.794 2920 136 140 135
980.11 726.794 2920 137 140 135
984.174 727.541 2923 137 141 135
988.244 728.288 2926 137 141 135
991.982 728.786 2928 137 141 136
996.063 729.532 2931 137 142 135
999.81 730.03 2933 137 141 135
1003.56 730.528 2935 137 142 135
1006.29 730.279 2934 138 142 135
1007.98 729.283 2930 139 142 135
1009.66 728.288 2926 140 143 135
1011.34 727.292 2922 140 144 136
1012.66 726.048 2917 142 146 138
1015.36 725.799 2916 144 141 127
1018.06 725.55 2915 132 128 117
1021.11 725.55 2915 120 120 114
1024.16 725.55 2915 119 116 111
1027.21 725.55 2915 117 116 110
1031.67 726.545 2919 117 116 109
1035.08 726.794 2920 117 116 109
1038.13 726.794 2920 117 117 109
1041.54 727.043 2921 117 117 110
1044.95 727.292 2922 119 118 110
1048.01 727.292 2922 121 118 112
1051.06 727.292 2922 124 117 115
1054.12 727.292 2922 126 127 129
1222.16 670.294 2693 145 150 141
1224.97 670.294 2693 145 150 140
1227.79 670.294 2693 145 150 140
1230.6 670.294 2693 145 149 140
1232.96 670.045 2692 145 148 140
1233.94 669.049 2688 145 148 140
1236.75 669.049 2688 145 148 140
1237.26 667.805 2683 144 148 140
1239.6 667.556 2682 146 149 140
1241.02 666.809 2679 147 148 139
1242.89 666.311 2677 145 147 139
1245.22 666.062 2676 142 144 138
1247.09 665.564 2674 142 142 138
1248.95 665.067 2672 141 137 138
1248.94 663.573 2666 140 133 138
774.558 798.081 3193 119 127 124
776.679 796.831 3188 122 127 126
778.545 795.331 3182 122 127 127
780.89 794.331 3178 122 126 121
783.967 794.082 3177 114 122 115
787.289 794.082 3177 107 117 106
790.612 794.082 3177 98 99 96
792.435 792.582 3171 90 86 89
793.492 790.332 3162 87 86 81
796.043 789.583 3159 84 83 80
798.587 788.833 3156 81 82 78
801.126 788.083 3153 79 79 79
803.658 787.333 3150 77 79 80
806.696 787.083 3149 75 78 82
808.96 786.083 3145 81 83 84
812.249 786.083 3145 88 90 101
812.167 782.834 3132 102 104 118
966.824 731.345 2926 134 138 134
968.227 730.095 2921 135 139 134
970.949 729.845 2920 135 140 134
974.003 729.845 2920 135 140 135
977.057 729.845 2920 136 141 136
980.11 729.845 2920 137 141 136
984.174 730.595 2923 137 141 136
988.244 731.345 2926 138 142 136
991.982 731.845 2928 138 142 136
996.063 732.595 2931 138 143 136
999.81 733.094 2933 138 142 135
1003.56 733.594 2935 138 142 135
1006.29 733.344 2934 139 142 135
1007.98 732.345 2930 140 142 135
1009.66 731.345 2926 139 142 135
1011.34 730.345 2922 139 142 137
1012.66 729.095 2917 142 145 139
1015.36 728.845 2916 145 147 127
1018.06 728.595 2915 133 129 115
1021.11 728.595 2915 122 119 113
1024.16 728.595 2915 120 117 110
1027.21 728.595 2915 117 116 110
1030.96 729.095 2917 117 117 109
1034.01 729.095 2917 117 117 110
1037.06 729.095 2917 117 117 110
1041.18 729.845 2920 117 118 110
1044.24 729.845 2920 119 117 110
1048.01 730.345 2922 120 116 110
1052.5 731.345 2926 123 119 110
1056.65 732.095 2929 126 127 127
1060.43 732.595 2931 132 136 143
1222.24 671.608 2687 145 148 139
1224.14 671.108 2685 145 149 140
1226.95 671.108 2685 145 149 141
1229.76 671.108 2685 145 148 141
1232.56 671.108 2685 145 147 141
1233.99 670.358 2682 145 148 141
1235.88 669.858 2680 144 148 140
1238.22 669.608 2679 145 148 139
1241.02 669.608 2679 146 148 139
1242.89 669.108 2677 144 147 139
1245.22 668.858 2676 142 146 139
1246.62 668.108 2673 142 143 138
1246.61 666.609 2667 141 141 138
1245.66 664.609 2659 141 138 138
1245.15 662.859 2652 140 138 138
775.286 802.17 3196 120 128 125
777.897 801.417 3193 123 127 126
779.524 799.66 3186 123 126 127
781.873 798.656 3182 122 127 119
784.707 798.154 3180 114 129 112
787.537 797.652 3178 106 110 101
790.612 797.401 3177 97 91 91
792.435 795.895 3171 87 87 86
793.241 793.385 3161 85 85 81
795.287 792.13 3156 83 83 80
797.828 791.377 3153 80 81 78
800.363 790.624 3150 77 78 78
802.892 789.871 3147 74 74 79
804.902 788.616 3142 70 76 82
807.417 787.863 3139 79 77 86
808.891 786.106 3132 88 94 103
810.87 784.851 3127 103 109 121
811.797 782.592 3118 118 119 122
967.816 735.155 2929 134 137 135
969.221 733.9 2924 134 138 134
970.949 732.896 2920 135 139 134
974.003 732.896 2920 135 140 135
977.057 732.896 2920 136 141 136
980.782 733.398 2922 137 141 136
984.511 733.9 2924 138 141 137
988.582 734.653 2927 138 142 137
992.659 735.406 2930 139 143 137
996.403 735.908 2932 139 143 136
999.81 736.159 2933 139 143 136
1003.56 736.661 2935 139 143 136
1006.29 736.41 2934 140 143 136
1007.98 735.406 2930 140 143 136
1009.66 734.402 2926 139 142 136
1011.34 733.398 2922 137 143 139
1012.66 732.143 2917 141 143 142
1015.36 731.892 2916 145 140 127
1018.06 731.641 2915 135 122 113
1021.11 731.641 2915 124 118 111
1024.16 731.641 2915 121 115 109
1027.21 731.641 2915 117 116 109
1030.96 732.143 2917 117 117 109
1034.01 732.143 2917 117 117 109
1037.06 732.143 2917 117 117 110
1040.11 732.143 2917 117 117 110
1043.52 732.394 2918 118 117 111
1046.93 732.645 2919 119 115 112
1051.06 733.398 2922 122 114 113
1057.01 735.406 2930 125 126 126
1060.43 735.657 2931 132 138 139
1221.86 672.658 2680 145 148 140
1224.66 672.658 2680 145 148 140
1227.93 672.909 2681 145 147 141
1230.73 672.909 2681 145 147 141
1233.07 672.658 2680 145 147 141
1234.95 672.156 2678 144 147 139
1237.29 671.905 2677 144 147 138
1240.09 671.905 2677 144 147 139
1242.89 671.905 2677 143 145 139
1243.83 670.901 2673 142 144 139
1245.22 670.148 2670 142 141 138
1244.28 668.14 2662 141 141 138
1243.31 666.132 2654 142 139 137
1242.8 664.375 2647 142 139 138
1243.69 663.371 2643 141 139 139
777.469 807.777 3205 121 128 126
779.116 806.013 3198 124 128 127
780.992 804.501 3192 122 127 127
782.856 802.989 3186 121 128 118
785.447 802.232 3183 112 118 108
788.033 801.476 3180 104 101 97
790.86 800.972 3178 95 91 86
791.935 798.704 3169 86 84 84
792.99 796.436 3160 84 84 81
794.783 794.923 3154 83 83 80
797.322 794.167 3151 81 82 78
799.601 793.159 3147 79 79 78
801.617 791.899 3142 75 76 77
804.134 791.143 3139 71 75 82
806.13 789.883 3134 83 88 87
807.858 788.37 3128 95 101 106
809.574 786.858 3122 107 113 124
811.797 785.85 3118 119 123 124
814.012 784.842 3114 117 122 123
969.468 739.475 2934 134 138 135
970.216 737.711 2927 134 138 135
972.944 737.459 2926 135 139 134
976.004 737.459 2926 136 140 135
979.064 737.459 2926 136 141 135
982.124 737.459 2926 137 141 136
985.521 737.711 2927 137 141 137
989.257 738.215 2929 138 142 137
992.998 738.719 2931 139 142 137
997.083 739.475 2934 139 142 137
1001.17 740.232 2937 139 143 137
1003.9 739.979 2936 139 143 137
1006.29 739.475 2934 140 143 137
1007.98 738.467 2930 140 143 137
1009.66 737.459 2926 140 144 137
1011.34 736.451 2922 139 144 141
1014.05 736.199 2921 142 146 144
1016.41 735.695 2919 146 147 127
1018.76 735.191 2917 134 128 110
1021.81 735.191 2917 122 116 109
1024.86 735.191 2917 119 116 107
1027.91 735.191 2917 115 117 108
1030.96 735.191 2917 116 117 109
1033.3 734.687 2915 117 117 109
1036.35 734.687 2915 117 117 109
1039.4 734.687 2915 117 117 111
1042.45 734.687 2915 117 115 112
1046.21 735.191 2917 117 111 114
1049.98 735.695 2919 122 115 116
1054.48 736.703 2923 127 125 125
1059.35 737.963 2928 133 136 134
1224.66 675.458 2680 145 147 140
1227.93 675.71 2681 144 148 140
