ply
format ascii 1.0
comment Humanplus generated
element vertex 1510
property float x
property float y
property float z
property uchar red
property uchar green
property uchar blue
end_header
562.539 -676.412 3057 61 61 53
566.846 -677.739 3063 61 62 53
570.608 -678.403 3066 60 62 54
573.814 -678.403 3066 59 61 53
576.644 -677.961 3064 60 60 52
579.091 -677.076 3060 60 61 53
581.53 -676.191 3056 61 62 54
582.621 -673.757 3045 61 63 54
584.844 -672.65 3040 61 63 54
588.023 -672.65 3040 61 62 54
591.202 -672.65 3040 62 62 54
594.381 -672.65 3040 62 63 55
597.953 -673.093 3042 62 64 56
601.135 -673.093 3042 62 64 56
604.316 -673.093 3042 62 64 56
607.497 -673.093 3042 62 64 54
610.679 -673.093 3042 63 64 53
613.86 -673.093 3042 63 63 54
617.447 -673.535 3044 61 63 55
620.222 -673.093 3042 59 60 55
623.199 -672.872 3041 60 57 55
626.379 -672.872 3041 61 69 67
629.559 -672.872 3041 81 80 78
632.947 -673.093 3042 100 103 96
637.174 -674.199 3047 123 130 113
670.293 -688.581 3112 154 150 137
675.712 -690.794 3122 154 152 137
681.152 -693.007 3132 154 152 138
686.394 -694.998 3141 153 151 137
691.655 -696.99 3150 152 149 136
696.273 -698.317 3156 151 150 137
700.46 -699.202 3160 152 151 137
705.992 -701.415 3170 153 151 137
711.097 -703.185 3178 153 150 137
715.769 -704.513 3184 152 149 137
720.228 -705.619 3189 151 148 136
725.605 -707.61 3198 150 148 136
729.861 -708.495 3202 151 148 137
734.813 -710.044 3209 151 148 136
739.089 -710.929 3213 151 147 136
743.835 -712.257 3219 150 147 136
749.059 -714.027 3227 150 147 137
753.832 -715.355 3233 149 146 134
758.15 -716.24 3237 147 145 131
762.477 -717.125 3241 144 141 125
766.339 -717.567 3243 136 139 120
770.679 -718.452 3247 128 129 112
774.79 -719.116 3250 120 119 104
778.668 -719.559 3252 112 109 95
782.79 -720.223 3255 107 102 87
786.677 -720.665 3257 102 98 85
789.841 -720.444 3256 98 93 82
792.271 -719.559 3252 93 93 80
794.449 -718.452 3247 94 92 78
797.844 -718.452 3247 95 91 77
800.747 -718.01 3245 95 91 77
804.14 -718.01 3245 94 91 76
807.534 -718.01 3245 94 90 75
811.427 -718.452 3247 93 90 75
815.826 -719.338 3251 91 89 75
818.974 -719.116 3250 89 90 75
821.867 -718.674 3248 94 91 75
824.501 -718.01 3245 99 94 79
826.874 -717.125 3241 101 98 82
830.008 -716.904 3240 102 102 81
833.139 -716.682 3239 95 110 79
836.526 -716.682 3239 88 92 74
839.913 -716.682 3239 81 75 69
843.561 -716.904 3240 74 70 65
847.733 -717.567 3243 77 67 61
852.175 -718.452 3247 80 70 60
855.57 -718.452 3247 82 71 60
-93.7207 -518.842 2356 69 68 61
-91.2569 -518.842 2356 69 68 62
-88.793 -518.842 2356 72 70 63
-86.3292 -518.842 2356 74 73 61
-83.8653 -518.842 2356 69 68 59
-81.5397 -519.723 2360 65 56 46
-79.0716 -519.723 2360 48 31 33
-76.6685 -520.164 2362 31 12 18
-74.3555 -521.265 2367 23 8 2
-71.9409 -521.705 2369 16 3 4
-69.4927 -521.925 2370 11 5 5
-67.0425 -522.146 2371 6 4 6
-64.6447 -522.806 2374 9 8 7
-62.2144 -523.247 2376 12 9 9
-59.7296 -523.247 2376 12 11 10
-57.1244 -522.146 2371 13 14 22
-54.5066 -520.824 2365 21 22 33
-51.8133 -518.622 2355 30 33 56
-48.9733 -514.658 2337 45 47 78
-46.3103 -512.236 2326 61 63 67
-43.7458 -510.694 2319 56 53 55
-41.2493 -509.813 2315 52 49 55
-38.8116 -509.593 2314 46 48 54
-36.3917 -509.593 2314 41 43 57
-33.9571 -509.373 2313 53 58 59
-31.5382 -509.373 2313 65 64 60
-29.1193 -509.373 2313 67 65 60
-26.712 -509.593 2314 69 66 60
-24.292 -509.593 2314 68 65 60
-21.891 -510.034 2316 67 64 60
-19.4774 -510.254 2317 66 63 59
-17.069 -510.694 2319 65 63 59
-14.6565 -511.135 2321 65 63 59
-12.2293 -511.135 2321 65 63 59
515.41 -670.135 3043 73 72 65
518.593 -670.135 3043 72 70 63
522.975 -671.676 3050 69 65 60
524.785 -669.914 3042 66 60 57
527.272 -669.034 3038 63 61 54
530.449 -669.034 3038 60 61 53
533.626 -669.034 3038 60 61 52
536.803 -669.034 3038 60 61 52
540.513 -669.694 3041 60 61 52
543.872 -669.914 3042 61 61 53
547.053 -669.914 3042 60 60 53
550.416 -670.135 3043 60 59 52
553.78 -670.355 3044 60 59 51
557.695 -671.236 3048 60 59 52
562.539 -673.218 3057 60 60 52
567.216 -674.98 3065 60 61 53
570.608 -675.2 3066 60 61 53
573.814 -675.2 3066 60 61 53
576.644 -674.759 3064 60 61 53
579.091 -673.878 3060 60 61 54
581.911 -673.438 3058 61 62 54
583.387 -671.456 3049 61 62 54
585.613 -670.355 3044 61 63 54
588.603 -670.135 3043 61 62 54
591.786 -670.135 3043 61 62 54
594.968 -670.135 3043 62 63 55
597.953 -669.914 3042 62 63 55
601.135 -669.914 3042 62 64 56
604.316 -669.914 3042 62 64 56
607.497 -669.914 3042 63 64 56
610.679 -669.914 3042 63 64 55
613.86 -669.914 3042 64 64 56
617.447 -670.355 3044 62 64 56
620.222 -669.914 3042 61 63 54
623.199 -669.694 3041 60 60 51
626.379 -669.694 3041 59 56 54
629.559 -669.694 3041 70 64 57
632.947 -669.914 3042 82 66 72
636.756 -670.575 3045 99 95 87
640.361 -671.016 3047 117 123 106
677.89 -686.431 3117 152 151 138
683.335 -688.633 3127 152 151 137
688.581 -690.615 3136 151 149 136
693.184 -691.937 3142 151 149 137
698.687 -694.139 3152 152 150 137
703.765 -695.901 3160 153 150 137
708.859 -697.662 3168 152 150 137
714.87 -700.305 3180 152 150 137
720.228 -702.287 3189 151 149 136
725.605 -704.269 3198 151 148 137
730.317 -705.59 3204 151 148 137
735.5 -707.352 3212 151 147 136
740.469 -708.894 3219 150 147 134
745.453 -710.435 3226 150 146 135
750.219 -711.757 3232 149 147 135
754.765 -712.858 3237 149 147 135
759.087 -713.739 3241 147 145 135
762.947 -714.179 3243 145 144 134
767.284 -715.06 3247 140 142 132
771.391 -715.721 3250 135 142 124
775.267 -716.161 3252 130 131 115
779.386 -716.822 3255 124 120 105
783.512 -717.482 3258 117 113 95
787.16 -717.703 3259 110 105 91
790.811 -717.923 3260 102 97 86
793.246 -717.042 3256 94 92 81
796.406 -716.822 3255 94 91 76
799.565 -716.602 3254 95 90 76
802.967 -716.602 3254 94 90 75
806.37 -716.602 3254 94 90 75
809.773 -716.602 3254 93 90 74
813.426 -716.822 3255 93 90 75
816.579 -716.602 3254 92 90 75
819.226 -715.941 3251 91 89 73
822.373 -715.721 3250 92 90 70
825.264 -715.28 3248 94 89 76
827.895 -714.62 3245 97 93 81
830.264 -713.739 3241 101 98 83
833.396 -713.518 3240 97 104 84
836.784 -713.518 3240 94 113 80
840.173 -713.518 3240 90 95 75
844.082 -713.959 3242 86 75 69
847.995 -714.399 3244 85 75 63
852.175 -715.06 3247 84 76 62
855.57 -715.06 3247 81 75 60
863.199 -718.583 3263 79 72 61
866.611 -718.583 3263 74 70 62
871.09 -719.464 3267 70 69 64
875.042 -719.905 3269 71 70 65
-88.68 -515.723 2353 71 69 63
-86.2192 -515.723 2353 73 71 64
-83.7585 -515.723 2353 66 71 65
-81.2978 -515.723 2353 58 55 56
-78.9041 -516.162 2355 33 30 46
-76.5712 -517.038 2359 7 12 27
-74.167 -517.477 2361 4 1 9
-71.7587 -517.915 2363 1 4 16
-69.3461 -518.353 2365 4 3 24
-66.9294 -518.792 2367 6 7 20
-64.5358 -519.449 2370 11 11 16
-62.162 -520.326 2374 15 15 15
-59.7045 -520.545 2375 13 13 15
-57.1244 -519.668 2371 11 17 22
-54.5066 -518.353 2365 15 20 29
-51.8133 -516.162 2355 18 25 38
-48.9733 -512.216 2337 26 29 48
-46.3103 -509.805 2326 33 38 45
-43.7458 -508.271 2319 45 40 42
-41.2493 -507.395 2315 56 48 53
-38.8116 -507.175 2314 48 51 65
-36.3759 -506.956 2313 40 51 59
-33.9571 -506.956 2313 54 63 54
-31.5382 -506.956 2313 67 65 56
-29.1193 -506.956 2313 68 64 59
-26.7004 -506.956 2313 68 65 60
-24.292 -507.175 2314 68 65 60
-21.891 -507.614 2316 68 64 60
-19.4774 -507.833 2317 66 62 60
-17.0617 -508.052 2318 64 63 59
-14.6439 -508.271 2319 64 63 59
-12.2187 -508.271 2319 64 63 59
520.126 -668.928 3052 79 74 67
523.833 -669.585 3055 75 71 66
524.785 -666.736 3042 70 66 62
527.272 -665.859 3038 65 61 59
530.449 -665.859 3038 60 61 56
533.626 -665.859 3038 60 61 54
536.803 -665.859 3038 60 61 53
540.513 -666.517 3041 60 61 53
543.872 -666.736 3042 60 61 53
547.233 -666.955 3043 60 59 53
550.596 -667.174 3044 59 59 52
553.962 -667.394 3045 59 60 52
558.061 -668.49 3050 59 60 52
562.907 -670.462 3059 59 60 53
567.216 -671.777 3065 59 61 53
571.166 -672.654 3069 60 61 53
574.188 -672.435 3068 60 61 53
577.02 -671.996 3066 60 61 54
579.848 -671.558 3064 60 61 54
581.911 -670.243 3058 61 62 54
583.578 -668.49 3050 61 63 55
586.19 -667.832 3047 61 63 55
588.797 -667.174 3044 61 63 55
591.98 -667.174 3044 61 62 55
595.163 -667.174 3044 61 62 55
598.347 -667.174 3044 61 62 55
601.135 -666.736 3042 61 63 55
604.316 -666.736 3042 62 64 56
607.497 -666.736 3042 63 64 56
610.679 -666.736 3042 64 64 56
613.86 -666.736 3042 64 65 56
617.447 -667.174 3044 63 66 57
620.63 -667.174 3044 62 65 55
623.199 -666.517 3041 60 64 53
626.379 -666.517 3041 57 59 54
629.559 -666.517 3041 60 54 55
632.947 -666.736 3042 63 59 63
636.756 -667.394 3045 76 59 72
639.94 -667.394 3045 89 89 86
644.181 -668.49 3050 108 114 100
680.057 -682.079 3112 151 149 137
685.507 -684.27 3122 151 148 136
690.096 -685.585 3128 150 148 136
696.47 -688.654 3142 151 148 137
701.538 -690.407 3150 152 149 137
707.964 -693.476 3164 152 148 137
713.971 -696.106 3176 151 149 136
719.099 -697.859 3184 151 150 136
725.151 -700.489 3196 151 149 137
730.773 -702.681 3206 151 148 138
735.958 -704.435 3214 151 148 136
741.619 -706.626 3224 150 147 135
746.608 -708.161 3231 149 146 134
751.38 -709.476 3237 149 146 134
755.698 -710.352 3241 148 146 134
760.024 -711.229 3245 147 144 134
764.359 -712.106 3249 145 144 134
768.229 -712.544 3251 144 143 134
772.341 -713.202 3254 142 143 128
776.221 -713.64 3256 139 142 123
780.104 -714.078 3258 136 132 114
783.752 -714.298 3259 127 123 105
788.368 -715.393 3264 118 112 98
792.509 -716.051 3267 107 97 91
794.951 -715.174 3263 95 92 84
798.364 -715.174 3263 95 89 78
801.776 -715.174 3263 94 90 76
805.188 -715.174 3263 94 90 75
807.609 -714.298 3259 94 90 75
811.018 -714.298 3259 93 90 75
814.426 -714.298 3259 92 90 75
817.834 -714.298 3259 93 90 75
821.494 -714.517 3260 93 90 73
823.132 -712.982 3253 91 89 72
826.026 -712.544 3251 88 89 74
828.66 -711.887 3248 94 88 76
831.289 -711.229 3245 100 92 78
834.168 -710.791 3243 100 93 81
837.559 -710.791 3243 99 103 78
840.951 -710.791 3243 98 115 76
844.602 -711.01 3244 97 97 73
848.779 -711.667 3247 93 82 71
852.962 -712.325 3250 88 81 69
856.888 -712.763 3252 81 81 67
862.934 -714.955 3262 73 74 65
866.345 -714.955 3262 72 69 63
870.823 -715.832 3266 70 70 65
874.506 -716.051 3267 71 70 67
878.46 -716.489 3269 72 71 69
882.419 -716.928 3271 76 74 72
-87.4739 -506.285 2321 72 69 62
-85.5963 -509.557 2336 75 72 67
-83.2602 -510.211 2339 67 71 71
-81.1251 -512.174 2348 59 64 65
-78.8371 -513.265 2353 34 36 59
-76.4413 -513.701 2355 9 5 37
-74.0728 -514.355 2358 7 7 15
-71.6675 -514.792 2360 5 10 29
-69.2875 -515.446 2363 11 13 42
-66.8729 -515.882 2365 17 8 33
-64.4541 -516.319 2367 33 16 24
-62.1096 -517.409 2372 49 25 22
-59.7045 -518.064 2375 35 26 19
-57.1244 -517.191 2371 22 20 22
-54.5066 -515.882 2365 19 22 24
-51.8133 -513.701 2355 17 19 21
-48.9733 -509.775 2337 21 22 18
-46.3103 -507.375 2326 26 20 23
-43.7458 -505.848 2319 34 35 28
-41.2493 -504.976 2315 43 53 52
-38.8116 -504.758 2314 43 56 75
-36.3759 -504.539 2313 43 46 62
-33.9571 -504.539 2313 55 60 48
-31.5382 -504.539 2313 68 67 53
-29.1193 -504.539 2313 67 65 58
-26.7004 -504.539 2313 67 65 59
-24.292 -504.758 2314 67 65 60
-21.891 -505.194 2316 68 65 61
-19.4774 -505.412 2317 67 64 61
-17.0617 -505.63 2318 66 64 60
-14.6439 -505.848 2319 65 64 58
-12.2187 -505.848 2319 64 63 58
525.547 -668.575 3065 74 74 71
524.785 -663.558 3042 71 71 68
527.272 -662.685 3038 67 66 64
530.449 -662.685 3038 63 62 60
533.626 -662.685 3038 62 62 55
536.803 -662.685 3038 61 60 54
540.513 -663.34 3041 61 61 53
544.051 -663.776 3043 60 61 53
547.413 -663.994 3044 60 60 52
550.777 -664.212 3045 60 59 52
554.689 -665.085 3049 59 60 52
558.61 -665.957 3053 59 60 53
563.643 -668.139 3063 59 60 53
567.771 -669.229 3068 59 60 53
571.538 -669.884 3071 59 61 53
574.563 -669.665 3070 60 61 54
577.397 -669.229 3068 60 61 54
580.227 -668.793 3066 61 61 54
582.482 -667.702 3061 61 62 54
584.726 -666.612 3056 62 63 55
586.19 -664.648 3047 61 63 56
589.377 -664.648 3047 61 63 56
592.174 -664.212 3045 61 63 55
595.359 -664.212 3045 61 62 55
598.543 -664.212 3045 61 62 54
601.53 -663.994 3044 61 62 55
604.316 -663.558 3042 62 63 55
607.497 -663.558 3042 63 64 56
610.679 -663.558 3042 63 64 56
614.263 -663.994 3044 64 65 57
617.447 -663.994 3044 63 65 57
620.63 -663.994 3044 63 65 56
623.813 -663.994 3044 61 64 55
626.585 -663.558 3042 60 63 54
629.766 -663.558 3042 60 59 52
632.947 -663.558 3042 61 55 55
636.756 -664.212 3045 68 60 57
639.94 -664.212 3045 75 61 66
644.181 -665.303 3050 87 86 75
648.644 -666.612 3056 100 110 94
652.266 -667.048 3058 116 123 112
676.997 -675.773 3098 153 148 136
682.213 -677.736 3107 152 149 135
688.551 -680.79 3121 151 148 136
693.367 -682.317 3128 151 149 136
700.424 -686.025 3145 151 149 136
707.293 -689.516 3161 150 149 136
713.521 -692.351 3174 150 149 136
718.647 -694.096 3182 150 149 136
724.471 -696.496 3193 150 149 137
730.089 -698.677 3203 150 149 138
735.271 -700.422 3211 151 148 137
741.159 -702.822 3222 150 147 135
746.146 -704.349 3229 149 146 134
750.684 -705.439 3234 148 146 133
755.931 -707.184 3242 148 145 133
760.492 -708.275 3247 147 145 132
764.829 -709.147 3251 146 143 134
768.938 -709.802 3254 145 144 135
772.578 -710.02 3255 144 145 133
775.982 -710.02 3255 142 143 130
779.386 -710.02 3255 139 142 123
783.271 -710.456 3257 131 133 115
787.885 -711.547 3262 124 123 106
791.781 -711.983 3264 113 108 96
796.413 -713.074 3269 103 91 88
800.076 -713.292 3270 100 92 79
803.496 -713.292 3270 97 90 77
806.916 -713.292 3270 95 91 75
809.84 -712.856 3268 93 90 75
813.257 -712.856 3268 92 89 75
816.675 -712.856 3268 91 89 75
819.842 -712.638 3267 92 90 74
823.006 -712.419 3266 93 90 74
825.409 -711.547 3262 91 89 74
827.805 -710.674 3258 90 89 73
830.701 -710.238 3256 93 88 71
833.338 -709.584 3253 95 87 74
835.968 -708.929 3250 96 89 77
839.367 -708.929 3250 97 89 77
842.766 -708.929 3250 98 102 76
846.164 -708.929 3250 99 115 78
849.563 -708.929 3250 96 99 79
853.487 -709.366 3252 94 85 77
857.942 -710.238 3256 88 81 74
862.934 -711.547 3262 83 72 69
866.345 -711.547 3262 80 73 63
870.557 -712.201 3265 78 72 66
874.239 -712.419 3266 78 72 69
878.46 -713.074 3269 78 71 71
882.688 -713.728 3272 79 76 73
886.652 -714.164 3274 81 79 73
890.076 -714.164 3274 81 80 73
-87.4739 -503.86 2321 73 68 61
-85.5597 -506.899 2335 76 72 66
-83.2246 -507.55 2338 68 77 70
-81.1251 -509.721 2348 59 62 64
-78.8036 -510.589 2352 35 46 58
-76.4089 -511.023 2354 10 16 36
-73.9785 -511.241 2355 10 10 15
-71.6068 -511.892 2358 9 18 26
-69.1995 -512.326 2360 19 30 38
-66.8163 -512.977 2363 28 16 26
-64.4541 -513.846 2367 56 19 15
-62.1096 -514.931 2372 83 28 20
-59.7045 -515.582 2375 58 46 25
-57.1244 -514.714 2371 32 39 39
-54.5296 -513.628 2366 24 30 53
-51.8573 -511.675 2357 16 22 42
-48.9733 -507.333 2337 17 21 31
-46.3302 -505.162 2327 18 23 30
-43.7458 -503.425 2319 24 27 30
-41.2672 -502.774 2316 30 49 54
-38.8116 -502.34 2314 38 73 78
-36.3759 -502.123 2313 45 60 66
-33.9571 -502.123 2313 57 64 55
-31.5382 -502.123 2313 68 65 57
-29.1193 -502.123 2313 67 65 59
-26.7004 -502.123 2313 66 64 59
-24.3025 -502.557 2315 67 64 60
-21.891 -502.774 2316 67 65 60
-19.4774 -502.991 2317 67 65 61
-17.0617 -503.208 2318 67 64 60
-14.6439 -503.425 2319 66 64 58
-12.2187 -503.425 2319 64 62 58
-9.7978 -503.642 2320 65 62 58
522.37 -657.34 3028 71 74 68
525.536 -657.34 3028 68 71 66
529.925 -658.86 3035 65 68 62
533.099 -658.86 3035 64 65 59
536.45 -659.077 3036 62 63 57
540.513 -660.162 3041 61 61 55
544.766 -661.465 3047 60 61 54
548.132 -661.682 3048 60 60 53
551.501 -661.899 3049 60 60 53
555.417 -662.767 3053 60 60 53
559.525 -663.853 3058 59 60 53
564.379 -665.807 3067 59 60 53
568.327 -666.675 3071 58 60 53
572.096 -667.326 3074 59 60 53
574.937 -666.892 3072 60 61 54
577.773 -666.458 3070 61 61 54
580.605 -666.024 3068 61 62 54
583.433 -665.59 3066 62 62 55
585.683 -664.504 3061 62 63 55
587.537 -662.984 3054 62 64 56
589.377 -661.465 3047 61 64 56
592.563 -661.465 3047 61 63 56
595.75 -661.465 3047 61 63 55
598.936 -661.465 3047 61 62 55
601.925 -661.248 3046 61 62 55
604.912 -661.031 3045 62 63 55
608.096 -661.031 3045 62 64 55
611.281 -661.031 3045 63 64 56
614.263 -660.814 3044 63 65 56
617.447 -660.814 3044 64 65 57
620.63 -660.814 3044 64 65 56
623.813 -660.814 3044 63 64 56
626.585 -660.379 3042 62 64 55
629.766 -660.379 3042 61 64 54
632.947 -660.379 3042 59 62 55
636.756 -661.031 3045 60 63 56
639.94 -661.031 3045 61 60 60
644.181 -662.116 3050 67 57 65
648.644 -663.419 3056 73 80 77
652.266 -663.853 3058 91 98 89
655.679 -664.07 3059 109 118 105
675.031 -670.583 3089 155 152 139
680.018 -672.319 3097 153 150 137
685.463 -674.49 3107 151 149 137
691.815 -677.529 3121 150 149 137
699.31 -681.654 3140 149 149 136
706.398 -685.344 3157 149 149 136
712.622 -688.167 3170 149 149 136
717.744 -689.903 3178 149 149 136
723.336 -692.074 3188 148 149 137
729.178 -694.462 3199 149 149 138
734.584 -696.416 3208 150 148 137
740.469 -698.804 3219 149 145 136
745.684 -700.541 3227 148 146 135
750.219 -701.626 3232 148 145 134
755.231 -703.146 3239 147 146 133
760.258 -704.665 3246 147 146 133
764.829 -705.751 3251 146 145 133
768.229 -705.751 3251 146 144 134
771.629 -705.751 3251 146 144 133
775.029 -705.751 3251 144 144 131
778.428 -705.751 3251 142 144 127
781.828 -705.751 3251 136 144 122
785.953 -706.402 3254 129 133 115
790.568 -707.487 3259 120 121 108
794.708 -708.139 3262 111 108 99
799.098 -709.007 3266 105 96 91
803.496 -709.875 3270 99 97 86
807.409 -710.31 3272 96 95 81
811.574 -710.961 3275 92 92 79
814.253 -710.31 3272 91 88 77
817.674 -710.31 3272 90 88 75
821.096 -710.31 3272 91 89 73
824.518 -710.31 3272 92 89 73
828.193 -710.527 3273 92 89 74
830.599 -709.658 3269 92 89 73
832.997 -708.79 3265 91 88 73
835.643 -708.139 3262 90 87 73
838.026 -707.27 3258 92 85 74
841.433 -707.27 3258 94 87 74
844.84 -707.27 3258 97 87 74
848.247 -707.27 3258 100 101 77
851.132 -706.836 3256 100 115 80
854.537 -706.836 3256 100 100 79
857.942 -706.836 3256 96 86 79
862.934 -708.139 3262 92 82 75
866.345 -708.139 3262 89 80 71
870.29 -708.573 3264 85 79 70
874.239 -709.007 3266 84 75 70
878.192 -709.441 3268 83 76 71
882.688 -710.31 3272 82 80 73
886.652 -710.744 3274 81 80 73
890.076 -710.744 3274 82 80 73
893.5 -710.744 3274 82 81 74
-87.4739 -501.435 2321 71 69 60
-85.5597 -504.459 2335 73 71 65
-83.2246 -505.107 2338 64 68 69
-81.056 -506.836 2346 55 60 63
-78.7701 -507.916 2351 32 32 57
-76.3764 -508.348 2353 9 4 36
-73.9471 -508.564 2354 12 11 14
-71.6068 -509.428 2358 15 21 24
-69.1995 -509.86 2360 17 18 33
-66.8163 -510.508 2363 20 8 19
-64.4541 -511.372 2367 38 13 5
-62.1096 -512.453 2372 57 21 18
-59.7045 -513.101 2375 55 41 31
-57.2207 -513.101 2375 54 60 56
-54.5987 -511.805 2369 34 38 81
-51.9453 -510.076 2361 15 19 62
-49.0781 -505.971 2342 17 27 43
-46.3501 -502.947 2328 20 22 38
-43.7646 -501.218 2320 24 30 32
-41.285 -500.57 2317 29 41 57
-38.8451 -500.354 2316 31 57 81
-36.3917 -499.922 2314 34 55 71
-33.9571 -499.706 2313 49 56 61
-31.5382 -499.706 2313 65 64 61
-29.1193 -499.706 2313 65 64 60
-26.7235 -500.138 2315 66 63 60
-24.313 -500.354 2316 66 64 59
-21.9099 -500.786 2318 67 65 60
-19.4858 -500.786 2318 66 65 61
-17.0617 -500.786 2318 66 64 60
-14.6439 -501.002 2319 65 63 58
-12.2187 -501.002 2319 64 60 58
-9.80203 -501.435 2321 64 62 58
-7.37796 -501.651 2322 65 63 59
524.495 -652.88 3022 73 74 68
527.655 -652.88 3022 72 72 65
531.167 -653.312 3024 70 70 62
534.329 -653.312 3024 68 67 59
539.625 -655.905 3036 66 65 56
543.515 -656.769 3040 65 63 55
547.413 -657.633 3044 63 62 53
551.139 -658.281 3047 62 62 53
555.235 -659.362 3052 61 62 53
559.708 -660.874 3059 59 61 53
563.827 -661.954 3064 59 61 53
567.956 -663.034 3069 58 61 53
571.724 -663.682 3072 59 61 53
575.498 -664.331 3075 60 61 54
578.149 -663.682 3072 61 62 54
580.984 -663.25 3070 62 62 55
583.814 -662.818 3068 62 63 55
586.831 -662.602 3067 62 64 56
588.884 -661.306 3061 62 64 56
590.731 -659.794 3054 62 64 56
592.758 -658.497 3048 62 63 56
595.945 -658.497 3048 62 63 56
599.133 -658.497 3048 61 63 55
602.913 -659.146 3051 61 62 55
605.707 -658.713 3049 61 63 55
608.895 -658.713 3049 62 63 55
611.682 -658.281 3047 62 64 55
614.869 -658.281 3047 63 64 56
618.055 -658.281 3047 63 65 56
621.242 -658.281 3047 64 65 56
624.428 -658.281 3047 63 64 56
626.585 -657.201 3042 62 64 56
629.766 -657.201 3042 61 64 56
632.947 -657.201 3042 61 64 55
636.756 -657.849 3045 61 62 54
640.361 -658.281 3047 62 60 55
644.181 -658.929 3050 64 59 55
648.432 -660.01 3055 66 56 61
652.266 -660.658 3058 77 77 66
655.679 -660.874 3059 89 97 83
659.739 -661.738 3063 109 117 99
664.025 -662.818 3068 129 139 122
669.19 -664.763 3077 140 145 145
674.156 -666.491 3085 152 155 142
678.7 -667.787 3091 151 153 139
683.256 -669.083 3097 151 150 139
690.707 -673.188 3116 150 149 138
699.088 -678.157 3139 150 148 137
705.951 -681.614 3155 149 148 135
711.723 -683.99 3166 149 149 136
717.066 -685.935 3175 149 148 136
722.429 -687.879 3184 148 148 137
727.354 -689.391 3191 149 149 137
732.981 -691.552 3201 149 149 137
739.319 -694.36 3214 149 147 136
744.066 -695.657 3220 148 146 135
749.291 -697.385 3228 148 146 134
754.532 -699.113 3236 147 146 134
759.556 -700.626 3243 147 146 133
763.653 -701.274 3246 146 146 133
767.52 -701.706 3248 146 145 133
770.442 -701.274 3246 146 144 133
773.837 -701.274 3246 145 144 132
777.231 -701.274 3246 144 144 131
780.866 -701.49 3247 140 144 129
784.987 -702.138 3250 137 143 124
789.356 -703.002 3254 130 133 119
793.246 -703.434 3256 123 124 111
797.63 -704.298 3260 115 115 102
802.022 -705.163 3264 108 108 95
805.929 -705.595 3266 101 103 87
810.583 -706.675 3271 95 94 83
814.75 -707.323 3274 93 89 78
818.924 -707.971 3277 90 86 75
822.351 -707.971 3277 91 87 71
825.526 -707.755 3276 92 88 72
828.446 -707.323 3274 92 88 73
830.853 -706.459 3270 93 88 74
834.273 -706.459 3270 92 88 74
837.693 -706.459 3270 91 88 72
841.113 -706.459 3270 91 86 70
843.757 -705.811 3267 92 85 71
846.915 -705.595 3266 94 86 72
850.07 -705.379 3265 96 86 76
853.484 -705.379 3265 98 100 80
856.899 -705.379 3265 99 115 82
859.523 -704.73 3262 98 101 84
862.934 -704.73 3262 98 91 81
866.345 -704.73 3262 95 90 78
870.023 -704.946 3263 92 89 74
873.971 -705.379 3265 89 82 70
878.192 -706.027 3268 85 79 72
882.688 -706.891 3272 83 80 73
887.193 -707.755 3276 81 81 73
890.891 -707.971 3277 82 81 73
893.5 -707.323 3274 82 82 74
-85.5597 -502.019 2335 70 67 61
-83.2246 -502.664 2338 60 63 60
-81.0214 -504.169 2345 50 43 46
-78.7366 -505.244 2350 29 16 33
-76.3439 -505.674 2352 8 7 21
-73.9471 -506.104 2354 15 7 8
-71.6068 -506.964 2358 21 12 13
-69.1995 -507.394 2360 16 14 19
-66.8163 -508.039 2363 11 7 12
-64.4541 -508.899 2367 21 4 5
-62.1096 -509.974 2372 30 20 15
-59.7045 -510.619 2375 53 35 26
-57.3171 -511.479 2379 76 52 43
-54.737 -510.619 2375 45 41 61
-51.9673 -507.824 2362 13 34 59
-49.3295 -506.104 2354 18 44 56
-46.4895 -502.019 2335 22 32 46
-43.8401 -499.655 2324 25 28 36
-41.3384 -498.795 2320 27 43 49
-38.8619 -498.15 2317 25 59 62
-36.4231 -497.935 2316 23 44 52
-34.0011 -497.935 2316 42 42 42
-31.5791 -497.935 2316 61 58 51
-29.1571 -497.935 2316 63 64 61
-26.7466 -498.15 2317 65 64 60
-24.3445 -498.58 2319 66 63 59
-21.9288 -498.795 2320 66 64 59
-19.511 -499.01 2321 65 64 60
-17.0838 -499.01 2321 64 63 60
-14.6565 -499.01 2321 64 62 59
-12.2293 -499.01 2321 64 62 59
-9.8147 -499.655 2324 64 62 58
-7.39384 -500.299 2327 64 63 59
530.815 -649.723 3022 76 74 63
534.153 -649.938 3023 74 71 61
537.492 -650.153 3024 72 68 60
542.442 -652.303 3034 69 67 58
547.413 -654.453 3044 67 64 57
551.139 -655.098 3047 64 64 55
555.235 -656.173 3052 62 63 54
559.708 -657.678 3059 59 61 54
562.907 -657.678 3059 59 61 54
567.216 -658.968 3065 58 61 54
571.166 -659.828 3069 59 61 54
575.498 -661.118 3075 60 62 54
578.714 -661.118 3075 61 62 55
581.741 -660.903 3074 62 62 55
584.955 -660.903 3074 62 63 56
587.787 -660.473 3072 62 64 56
590.423 -659.828 3069 62 65 56
592.472 -658.538 3063 62 64 56
594.508 -657.248 3057 62 63 56
597.314 -656.818 3055 62 63 56
600.509 -656.818 3055 62 63 55
603.704 -656.818 3055 61 63 55
606.899 -656.818 3055 61 63 55
609.694 -656.388 3053 61 63 55
612.485 -655.958 3051 62 63 55
615.676 -655.958 3051 63 64 55
618.867 -655.958 3051 63 64 55
621.853 -655.743 3050 63 64 55
625.043 -655.743 3050 62 63 56
627.821 -655.313 3048 61 63 56
630.387 -654.668 3045 62 63 56
633.571 -654.668 3045 62 63 56
636.756 -654.668 3045 62 62 56
640.991 -655.743 3050 62 63 55
644.814 -656.388 3053 61 64 55
648.432 -656.818 3055 59 61 57
652.266 -657.463 3058 64 57 59
655.679 -657.678 3059 68 76 69
659.739 -658.538 3063 85 94 80
664.025 -659.613 3068 102 111 99
669.19 -661.548 3077 125 131 118
674.156 -663.268 3085 148 141 127
678.481 -664.343 3090 150 155 136
683.256 -665.848 3097 151 152 138
690.485 -669.718 3115 151 148 140
698.642 -674.448 3137 150 148 138
705.055 -677.458 3151 150 147 136
710.374 -679.393 3160 149 148 136
715.711 -681.328 3169 149 147 136
721.067 -683.263 3178 148 148 137
726.214 -684.982 3186 148 148 138
730.691 -686.057 3191 148 148 137
737.479 -689.282 3206 148 149 136
742.68 -691.002 3214 148 147 135
747.434 -692.292 3220 148 147 135
752.9 -694.227 3229 147 147 134
758.15 -695.947 3237 147 146 133
762.947 -697.237 3243 146 146 133
766.811 -697.667 3245 146 145 133
770.205 -697.667 3245 145 145 132
773.598 -697.667 3245 145 144 132
776.992 -697.667 3245 145 144 131
780.385 -697.667 3245 145 145 131
784.262 -698.097 3247 144 144 129
788.385 -698.742 3250 140 143 127
792.271 -699.172 3252 135 135 121
796.406 -699.817 3255 126 130 115
800.793 -700.677 3259 116 122 106
804.695 -701.107 3261 107 113 97
809.344 -702.182 3266 98 101 89
813.506 -702.827 3269 94 88 81
817.924 -703.687 3273 90 87 76
821.598 -703.902 3274 91 86 71
825.778 -704.547 3277 92 87 72
828.952 -704.332 3276 93 88 72
832.378 -704.332 3276 93 88 73
835.549 -704.117 3275 93 88 74
838.974 -704.117 3275 92 88 73
841.37 -703.257 3271 91 87 71
844.532 -703.042 3270 89 86 71
847.693 -702.827 3269 91 85 72
850.851 -702.612 3268 92 85 74
854.268 -702.612 3268 95 85 77
857.161 -702.182 3266 98 99 79
859.523 -701.322 3262 101 110 82
862.934 -701.322 3262 103 100 81
866.345 -701.322 3262 101 99 81
870.023 -701.537 3263 99 93 78
873.971 -701.967 3265 93 85 75
878.192 -702.612 3268 87 82 74
882.958 -703.687 3273 84 79 73
887.735 -704.762 3278 81 80 73
891.163 -704.762 3278 82 81 72
895.137 -705.192 3280 82 81 74
-85.4498 -498.938 2332 66 67 57
-83.189 -500.008 2337 53 55 50
-80.9178 -501.077 2342 40 34 30
-78.7366 -502.789 2350 22 15 9
-76.3439 -503.217 2352 5 2 6
-73.9157 -503.431 2353 9 4 2
-71.6068 -504.501 2358 12 6 3
-69.2288 -505.143 2361 10 6 4
-66.8163 -505.57 2363 9 2 5
-64.4813 -506.64 2368 21 10 5
-62.162 -507.924 2374 33 21 13
-59.805 -508.994 2379 55 48 20
-57.4135 -509.85 2383 77 71 31
-54.8523 -509.208 2380 46 41 41
-52.2533 -508.138 2375 15 30 55
-49.4762 -505.143 2361 20 42 69
-46.4895 -499.58 2335 26 35 55
-43.9344 -498.296 2329 25 34 40
-41.3919 -497.012 2323 25 43 41
-38.9122 -496.371 2320 22 40 42
-36.486 -496.371 2320 20 21 32
-34.0598 -496.371 2320 38 39 22
-31.6336 -496.371 2320 57 61 42
-29.2074 -496.371 2320 61 65 62
-26.7812 -496.371 2320 66 64 60
-24.3655 -496.584 2321 66 64 58
-21.9477 -496.798 2322 67 65 59
-19.5194 -496.798 2322 66 64 59
-17.0985 -497.012 2323 65 63 60
-14.6755 -497.226 2324 65 63 60
-12.2451 -497.226 2324 65 62 59
-9.81892 -497.44 2325 65 63 58
-7.39702 -498.082 2328 65 63 58
542.263 -648.919 3033 72 71 62
547.413 -651.272 3044 68 68 60
551.139 -651.914 3047 64 65 58
555.235 -652.984 3052 60 63 55
559.708 -654.482 3059 57 59 55
562.907 -654.482 3059 57 60 55
566.106 -654.482 3059 57 61 55
570.422 -655.765 3065 59 62 54
574.937 -657.263 3072 61 62 55
579.09 -658.333 3077 61 62 55
582.119 -658.119 3076 62 62 56
585.336 -658.119 3076 62 62 56
588.553 -658.119 3076 62 63 56
591.77 -658.119 3076 62 63 56
594.213 -657.263 3072 62 63 56
596.453 -656.193 3067 62 63 56
599.465 -655.979 3066 63 63 56
602.671 -655.979 3066 62 63 55
605.877 -655.979 3066 62 63 55
609.084 -655.979 3066 62 63 55
612.09 -655.765 3065 62 63 55
613.489 -653.84 3056 62 63 55
616.483 -653.626 3055 63 64 55
619.678 -653.626 3055 63 64 54
622.873 -653.626 3055 63 63 55
626.068 -653.626 3055 62 62 55
629.674 -654.054 3057 61 60 55
631.629 -652.77 3051 62 62 55
634.82 -652.77 3051 62 61 56
638.011 -652.77 3051 63 64 57
641.201 -652.77 3051 64 67 56
645.026 -653.412 3054 62 66 55
648.432 -653.626 3055 61 65 54
652.48 -654.482 3059 62 60 52
656.107 -654.91 3061 64 55 56
659.955 -655.551 3064 73 71 60
664.025 -656.407 3068 83 81 76
669.19 -658.333 3077 102 101 91
674.156 -660.044 3085 120 122 112
678.481 -661.114 3090 132 138 133
683.256 -662.612 3097 144 155 137
690.042 -666.035 3113 148 152 141
697.529 -670.1 3132 152 148 139
703.265 -672.454 3143 150 148 136
708.351 -674.165 3151 148 147 136
713.679 -676.091 3160 148 147 136
719.025 -678.016 3169 148 147 137
724.391 -679.942 3178 147 148 138
729.546 -681.654 3186 147 147 137
735.638 -684.221 3198 147 148 135
741.062 -686.147 3207 147 147 136
746.041 -687.644 3214 146 147 136
750.568 -688.714 3219 146 147 135
756.277 -690.854 3229 146 146 133
761.536 -692.565 3237 146 146 133
765.866 -693.421 3241 146 146 132
769.493 -693.635 3242 146 145 132
773.121 -693.849 3243 145 145 131
776.513 -693.849 3243 145 144 132
780.385 -694.277 3245 145 145 132
784.02 -694.491 3246 145 146 133
787.9 -694.919 3248 142 145 134
791.784 -695.347 3250 140 143 131
795.672 -695.775 3252 134 138 128
799.81 -696.416 3255 128 135 118
803.461 -696.63 3256 121 124 107
807.857 -697.486 3260 113 108 96
812.511 -698.556 3265 103 100 84
816.425 -698.984 3267 94 87 78
820.594 -699.626 3270 92 87 71
824.518 -700.054 3272 91 86 71
829.205 -701.123 3277 92 87 71
833.648 -701.979 3281 93 88 73
836.824 -701.765 3280 92 88 74
838.974 -700.695 3275 92 87 73
842.399 -700.695 3275 91 87 72
845.565 -700.482 3274 90 87 72
848.73 -700.268 3273 91 86 71
851.892 -700.054 3272 91 85 72
855.314 -700.054 3272 93 85 73
857.686 -699.198 3268 94 85 77
860.84 -698.984 3267 97 95 80
863.199 -698.128 3263 99 98 82
866.611 -698.128 3263 100 98 83
870.023 -698.128 3263 101 99 82
873.971 -698.556 3265 98 93 80
878.192 -699.198 3268 95 85 77
882.958 -700.268 3273 89 82 73
887.735 -701.337 3278 83 79 72
891.435 -701.551 3279 84 81 71
895.41 -701.979 3281 85 81 74
-85.4498 -496.501 2332 61 65 58
-83.0466 -496.714 2333 45 54 52
-80.745 -497.566 2337 29 29 31
-78.6696 -499.908 2348 16 7 9
-76.3439 -500.76 2352 2 5 6
-73.9157 -500.972 2353 3 1 3
-71.6068 -502.037 2358 3 3 5
-69.2582 -502.889 2362 5 3 8
-66.8729 -503.527 2365 6 7 14
-64.563 -504.805 2371 21 13 21
-62.2667 -506.295 2378 35 34 33
-59.9056 -507.36 2383 56 66 46
-57.5099 -508.211 2387 77 49 40
-54.9445 -507.573 2384 47 23 34
-52.3193 -506.295 2378 17 37 52
-49.6229 -504.166 2368 23 57 71
-46.6288 -498.63 2342 29 39 52
-44.0287 -496.927 2334 26 31 33
-41.4453 -495.224 2326 22 36 36
-38.929 -494.159 2321 19 36 40
-36.4546 -493.521 2318 16 26 31
-34.0158 -493.308 2317 34 30 22
-31.5927 -493.308 2317 52 54 42
-29.1696 -493.308 2317 59 70 63
-26.7466 -493.308 2317 66 66 61
-24.3235 -493.308 2317 67 65 59
-21.9099 -493.521 2318 67 65 59
-19.4942 -493.734 2319 67 64 59
-17.0764 -493.947 2320 66 64 60
-14.6502 -493.947 2320 66 64 60
-12.2451 -494.798 2324 66 64 60
-9.81892 -495.011 2325 66 63 59
-7.39067 -495.224 2326 66 63 58
542.263 -645.75 3033 74 73 63
547.233 -647.879 3043 69 72 62
551.32 -648.944 3048 64 69 61
555.781 -650.434 3055 59 64 59
558.61 -650.008 3053 54 62 58
561.803 -650.008 3053 55 59 58
564.995 -650.008 3053 56 62 57
569.863 -651.924 3062 59 63 56
574.375 -653.415 3069 61 62 56
579.09 -655.118 3077 61 61 56
582.308 -655.118 3077 61 62 55
585.716 -655.331 3078 61 61 55
588.935 -655.331 3078 61 62 55
592.539 -655.757 3080 62 62 55
595.76 -655.757 3080 62 63 56
598.203 -654.905 3076 63 63 56
601.224 -654.692 3075 63 63 55
604.44 -654.692 3075 63 63 55
607.656 -654.692 3075 62 63 55
610.872 -654.692 3075 62 63 56
613.688 -654.266 3073 62 63 55
615.296 -652.563 3065 62 63 55
617.896 -651.924 3062 62 64 55
621.098 -651.924 3062 62 64 54
624.3 -651.924 3062 62 63 55
627.502 -651.924 3062 62 63 55
631.322 -652.563 3065 61 63 55
633.078 -651.073 3058 62 64 56
636.276 -651.073 3058 62 64 56
639.474 -651.073 3058 64 64 57
642.672 -651.073 3058 65 66 56
646.926 -652.137 3063 64 67 56
650.13 -652.137 3063 63 65 55
653.333 -652.137 3063 61 64 54
656.965 -652.563 3065 59 60 55
660.385 -652.776 3066 62 55 56
664.241 -653.415 3069 64 65 65
669.19 -655.118 3077 78 69 74
674.156 -656.821 3085 92 93 92
678.481 -657.886 3090 115 118 109
682.815 -658.95 3095 137 136 120
689.82 -662.57 3112 145 156 131
696.415 -665.763 3127 153 153 135
701.028 -667.041 3133 150 151 139
706.552 -669.17 3143 147 149 137
711.42 -670.66 3150 147 148 136
716.529 -672.363 3158 147 148 136
738.983 -680.88 3198 145 147 135
744.648 -683.009 3208 145 147 135
749.402 -684.286 3214 145 146 134
753.934 -685.351 3219 145 146 133
760.124 -687.906 3231 145 146 133
764.448 -688.757 3235 146 146 132
769.018 -689.822 3240 146 146 132
772.883 -690.248 3242 146 146 131
776.273 -690.248 3242 145 145 131
779.904 -690.461 3243 145 145 132
783.779 -690.886 3245 145 146 132
787.415 -691.099 3246 145 146 132
791.297 -691.525 3248 144 144 130
794.938 -691.738 3249 142 142 129
799.073 -692.377 3252 140 140 124
802.474 -692.377 3252 134 140 119
806.123 -692.59 3253 128 127 111
810.769 -693.654 3258 113 117 104
814.926 -694.293 3261 97 103 89
819.089 -694.932 3264 94 90 75
823.762 -695.996 3269 90 88 73
827.94 -696.635 3272 91 87 70
833.14 -698.125 3279 92 87 72
837.08 -698.551 3281 92 87 74
840.255 -698.338 3280 92 88 73
842.656 -697.487 3276 92 88 73
846.082 -697.487 3276 91 88 72
849.508 -697.487 3276 91 88 72
852.673 -697.274 3275 90 87 73
855.837 -697.061 3274 90 85 73
858.736 -696.635 3272 90 86 75
861.104 -695.783 3268 93 86 76
863.992 -695.357 3266 95 92 79
867.408 -695.357 3266 99 96 81
870.823 -695.357 3266 103 98 82
874.239 -695.357 3266 103 103 83
878.192 -695.783 3268 103 95 82
883.228 -697.061 3274 94 86 81
887.735 -697.912 3278 85 84 78
891.707 -698.338 3280 87 81 75
895.41 -698.551 3281 88 83 76
900.485 -699.829 3287 87 85 77
904.747 -700.467 3290 85 83 75
911.224 -702.809 3301 85 82 74
910.52 -699.616 3286 84 83 75
-85.4498 -494.065 2332 59 68 60
-83.0466 -494.277 2333 43 48 54
-80.745 -495.124 2337 27 21 32
-78.6026 -497.031 2346 19 14 9
-76.2466 -497.667 2349 12 8 6
-73.9157 -498.514 2353 11 7 3
-71.6068 -499.573 2358 11 3 7
-69.3755 -501.268 2366 10 7 11
-66.986 -501.904 2369 9 9 24
-64.6991 -503.387 2376 19 19 36
-62.2929 -504.022 2379 30 36 54
-59.9559 -505.294 2385 40 42 71
-57.534 -505.929 2388 51 34 49
-54.8523 -504.234 2380 36 28 27
-52.1213 -501.904 2369 20 38 50
-49.4762 -500.209 2361 24 47 72
-46.6886 -496.819 2345 29 31 49
-44.0099 -494.277 2333 27 29 25
-41.3741 -491.946 2322 25 32 32
-38.8787 -491.099 2318 20 29 38
-36.4388 -490.887 2317 15 16 30
-33.9864 -490.463 2315 33 32 21
-31.5518 -490.251 2314 51 53 43
-29.1319 -490.251 2314 59 65 64
-26.712 -490.251 2314 67 66 62
-24.292 -490.251 2314 67 65 59
-21.891 -490.675 2316 67 65 59
-19.469 -490.675 2316 67 65 59
-17.0617 -491.099 2318 67 65 60
-14.6439 -491.311 2319 67 65 60
-12.2293 -491.734 2321 67 66 60
-9.81047 -492.158 2323 66 65 60
-7.38431 -492.37 2324 66 64 59
542.263 -642.581 3033 77 75 64
547.233 -644.7 3043 74 75 64
551.32 -645.759 3048 72 74 64
554.144 -645.335 3046 68 70 63
557.329 -645.335 3046 64 64 62
560.515 -645.335 3046 62 64 60
564.255 -645.971 3049 60 64 59
569.863 -648.725 3062 61 64 57
574.375 -650.208 3069 62 63 57
579.09 -651.903 3077 61 63 56
582.308 -651.903 3077 61 62 55
585.716 -652.115 3078 61 62 54
589.127 -652.327 3079 61 62 54
592.924 -652.962 3082 61 62 54
596.727 -653.598 3085 62 63 55
599.37 -652.962 3082 62 63 56
602.593 -652.962 3082 63 63 55
605.816 -652.962 3082 62 63 54
609.039 -652.962 3082 62 63 55
612.461 -653.174 3083 62 63 56
614.886 -652.327 3079 62 63 56
617.303 -651.479 3075 62 63 55
619.308 -650.208 3069 62 63 55
622.518 -650.208 3069 62 63 54
625.727 -650.208 3069 62 63 55
628.937 -650.208 3069 62 64 55
632.764 -650.844 3072 62 65 56
634.942 -649.784 3067 63 65 56
638.149 -649.784 3067 63 66 56
641.356 -649.784 3067 64 66 56
644.564 -649.784 3067 65 67 57
647.982 -649.996 3068 64 66 57
650.979 -649.784 3067 64 65 56
653.973 -649.573 3066 62 64 55
657.179 -649.573 3066 61 64 53
660.385 -649.573 3066 62 60 51
665.756 -651.691 3076 62 56 54
669.625 -652.327 3079 70 62 57
674.156 -653.598 3085 78 64 71
678.7 -654.869 3091 95 90 85
682.815 -655.717 3095 112 116 103
689.377 -658.894 3110 124 136 120
694.856 -661.013 3120 137 157 131
699.685 -662.496 3127 143 151 141
704.304 -663.767 3133 150 151 139
708.71 -664.827 3138 149 150 136
713.807 -666.522 3146 149 148 136
736.672 -675.42 3188 145 146 134
743.024 -678.174 3201 145 146 134
748.936 -680.505 3212 145 145 134
753.934 -681.988 3219 145 146 133
758.712 -683.259 3225 145 146 133
763.739 -684.742 3232 145 145 132
767.831 -685.377 3235 146 145 132
772.406 -686.437 3240 145 145 131
776.034 -686.649 3241 144 145 131
779.664 -686.86 3242 144 145 131
783.296 -687.072 3243 144 145 130
787.172 -687.496 3245 144 145 129
790.566 -687.496 3245 143 144 130
794.204 -687.708 3246 142 142 130
797.599 -687.708 3246 141 141 131
801.24 -687.92 3247 138 141 131
804.883 -688.132 3248 135 141 127
809.276 -688.979 3252 125 129 123
813.676 -689.826 3256 114 117 101
818.085 -690.674 3260 104 103 79
822.502 -691.521 3264 94 90 74
827.181 -692.581 3269 94 88 69
832.378 -694.064 3276 94 86 71
837.08 -695.123 3281 93 88 73
841.279 -695.759 3284 93 88 73
843.427 -694.699 3279 92 88 73
846.082 -694.064 3276 91 88 73
849.508 -694.064 3276 91 88 73
852.934 -694.064 3276 91 88 73
856.098 -693.852 3275 91 87 73
859.261 -693.64 3274 91 88 73
861.631 -692.793 3270 92 88 72
863.992 -691.945 3266 93 89 76
867.408 -691.945 3266 97 92 79
870.823 -691.945 3266 101 93 83
874.506 -692.157 3267 103 101 86
878.46 -692.581 3269 105 104 87
883.228 -693.64 3274 99 96 88
888.006 -694.699 3279 93 90 83
891.979 -695.123 3281 92 87 78
895.41 -695.123 3281 92 85 78
900.485 -696.394 3287 89 85 77
907.772 -699.36 3301 86 85 76
910.396 -698.725 3298 85 83 74
910.52 -696.182 3286 84 83 76
911.731 -694.487 3278 84 83 77
-87.6247 -490.153 2325 63 70 66
-85.4864 -491.839 2333 56 64 61
-83.0466 -491.839 2333 41 49 56
-80.7105 -492.472 2336 25 29 36
-78.5021 -493.947 2343 23 19 17
-76.1816 -494.791 2347 21 18 15
-73.8529 -495.634 2351 20 17 14
-71.6372 -497.32 2359 18 13 15
-69.3755 -498.796 2366 15 11 16
-67.0425 -499.85 2371 11 13 22
-64.7808 -501.537 2379 18 18 29
-62.4238 -502.591 2384 24 27 39
-60.0815 -503.856 2390 25 33 50
-57.534 -503.434 2388 25 24 38
-54.737 -500.694 2375 24 18 26
-52.0553 -498.796 2366 23 40 50
-49.2876 -495.845 2352 26 60 74
-46.5492 -492.893 2338 28 38 47
-43.8778 -490.363 2326 28 20 20
-41.3206 -488.888 2319 27 28 27
-38.8619 -488.466 2317 21 31 35
-36.4074 -488.044 2315 14 23 28
-33.9717 -487.834 2314 32 29 21
-31.5518 -487.834 2314 49 51 42
-29.1319 -487.834 2314 58 69 64
-26.712 -487.834 2314 67 67 62
-24.292 -487.834 2314 67 65 60
-21.8816 -488.044 2315 67 65 60
-19.469 -488.255 2316 67 64 60
-17.0617 -488.677 2318 67 65 60
-14.6439 -488.888 2319 67 66 60
-12.2293 -489.309 2321 67 66 60
-9.81047 -489.731 2323 66 65 60
547.233 -641.52 3043 80 78 68
550.958 -642.153 3046 79 77 68
553.416 -641.309 3042 76 76 69
556.597 -641.309 3042 73 72 67
559.779 -641.309 3042 68 68 65
563.7 -642.153 3046 63 67 61
569.677 -645.315 3061 63 64 58
574.375 -647.002 3069 62 64 57
579.09 -648.688 3077 62 64 57
582.308 -648.688 3077 61 63 56
585.716 -648.899 3078 61 62 55
589.509 -649.531 3081 61 62 54
593.501 -650.375 3085 61 62 54
597.307 -651.007 3088 61 62 54
600.731 -651.218 3089 62 63 55
603.962 -651.218 3089 62 63 55
607.192 -651.218 3089 62 63 54
610.422 -651.218 3089 62 63 55
613.653 -651.218 3089 62 63 56
616.284 -650.585 3086 62 63 56
618.708 -649.742 3082 62 63 55
620.519 -648.266 3075 62 63 55
623.735 -648.266 3075 62 62 54
626.951 -648.266 3075 61 63 55
630.166 -648.266 3075 62 63 56
634 -648.899 3078 63 65 56
636.391 -648.056 3074 64 66 56
639.606 -648.056 3074 64 65 56
642.82 -648.056 3074 64 65 56
646.035 -648.056 3074 64 66 56
649.883 -648.688 3077 64 65 57
653.313 -648.899 3078 64 65 56
656.319 -648.688 3077 64 64 56
659.537 -648.688 3077 63 65 54
662.755 -648.688 3077 62 65 53
665.973 -648.688 3077 60 61 54
670.93 -650.375 3085 62 60 55
675.031 -651.218 3089 63 61 62
679.359 -652.272 3094 75 60 70
682.815 -652.483 3095 87 88 82
689.155 -655.434 3109 104 115 95
693.52 -656.488 3114 120 130 109
698.119 -657.753 3120 137 145 124
702.056 -658.386 3123 153 147 132
706.226 -659.229 3127 152 153 140
710.857 -660.494 3133 150 151 138
729.74 -665.764 3158 145 146 134
735.828 -668.294 3170 145 146 134
742.407 -671.246 3184 145 145 133
752.763 -677.57 3214 145 145 132
757.771 -679.046 3221 145 145 132
762.558 -680.311 3227 145 144 132
767.356 -681.576 3233 145 145 131
772.168 -682.841 3239 144 145 131
775.794 -683.051 3240 143 145 131
779.664 -683.473 3242 143 144 131
783.296 -683.684 3243 143 144 130
786.93 -683.895 3244 143 144 130
790.322 -683.895 3244 142 143 129
793.225 -683.473 3242 142 142 129
796.616 -683.473 3242 142 141 129
800.006 -683.473 3242 142 142 129
803.644 -683.684 3243 142 141 126
808.28 -684.738 3248 137 140 124
812.677 -685.581 3252 131 127 111
817.081 -686.425 3256 115 116 98
822.502 -688.111 3264 98 102 85
826.675 -688.744 3267 97 90 73
832.124 -690.43 3275 96 90 74
837.08 -691.695 3281 95 89 75
841.792 -692.749 3286 93 89 75
844.456 -692.117 3283 92 89 75
846.857 -691.273 3279 91 88 74
850.286 -691.273 3279 91 88 74
853.715 -691.273 3279 91 87 74
856.883 -691.063 3278 91 87 74
859.523 -690.43 3275 91 87 73
862.158 -689.798 3272 91 87 73
865.315 -689.587 3271 91 88 75
867.939 -688.954 3268 95 88 77
871.356 -688.954 3268 99 94 80
874.774 -688.954 3268 103 104 84
879.267 -689.798 3272 107 101 86
883.767 -690.641 3276 104 103 89
888.547 -691.695 3281 100 97 86
891.979 -691.695 3281 98 91 84
897.047 -692.96 3287 95 89 82
902.128 -694.225 3293 91 85 80
908.047 -696.122 3302 86 84 77
910.396 -695.279 3298 85 83 75
910.52 -692.749 3286 83 83 75
911.731 -691.063 3278 84 83 76
-87.6247 -487.723 2325 64 70 66
-85.4864 -489.402 2333 57 68 62
-83.0822 -489.611 2334 41 48 57
-80.7105 -490.031 2336 25 26 41
-78.5021 -491.499 2343 22 24 24
-76.1167 -491.919 2345 20 26 25
-73.8214 -492.968 2350 16 21 25
-71.6068 -494.646 2358 13 19 23
-69.3461 -496.114 2365 12 14 21
-67.0708 -497.583 2372 12 13 21
-64.7808 -499.051 2379 15 17 21
-62.4762 -500.52 2386 19 21 25
-60.0815 -501.359 2390 17 19 28
-57.293 -498.841 2378 15 11 27
-54.714 -498.002 2374 18 21 25
-51.9233 -495.066 2360 22 43 50
-49.12 -491.709 2344 35 53 75
-46.4098 -488.982 2331 49 40 45
-43.8024 -487.094 2322 35 27 15
-41.285 -486.045 2317 22 28 23
-38.8284 -485.626 2315 18 24 31
-36.3759 -485.206 2313 15 16 26
-33.9571 -485.206 2313 35 31 21
-31.5382 -485.206 2313 56 51 42
-29.1193 -485.206 2313 61 64 63
-26.7004 -485.206 2313 67 67 62
-24.292 -485.416 2314 67 66 61
-21.8816 -485.626 2315 67 65 61
-19.469 -485.835 2316 67 65 60
-17.0617 -486.255 2318 68 66 60
-14.6439 -486.465 2319 68 66 60
-12.2293 -486.884 2321 68 67 60
548.426 -636.033 3032 81 81 73
551.597 -636.033 3032 79 79 74
554.768 -636.033 3032 78 78 72
558.49 -636.663 3035 73 74 69
562.96 -638.131 3042 69 71 64
569.677 -642.117 3061 66 67 58
574.375 -643.795 3069 63 63 58
579.09 -645.473 3077 62 64 58
582.498 -645.683 3078 62 63 57
586.478 -646.522 3082 61 62 55
590.275 -647.151 3085 60 61 54
594.848 -648.62 3092 61 61 53
598.468 -649.039 3094 62 61 54
601.509 -648.83 3093 62 62 54
604.744 -648.83 3093 62 63 54
607.978 -648.83 3093 62 63 54
611.213 -648.83 3093 63 63 55
614.646 -649.039 3094 62 63 56
617.482 -648.62 3092 62 63 56
620.114 -647.99 3089 62 63 55
621.932 -646.522 3082 62 62 55
625.155 -646.522 3082 61 62 54
628.378 -646.522 3082 61 62 55
631.601 -646.522 3082 62 63 56
635.442 -647.151 3085 63 65 56
638.668 -647.151 3085 63 65 56
641.27 -646.522 3082 64 64 56
644.493 -646.522 3082 64 65 56
647.716 -646.522 3082 64 65 56
650.939 -646.522 3082 64 65 56
655.011 -647.361 3086 64 64 56
658.452 -647.571 3087 64 65 56
661.68 -647.571 3087 64 66 55
664.909 -647.571 3087 63 65 54
668.137 -647.571 3087 62 64 53
672.018 -648.2 3090 62 62 52
675.686 -648.62 3092 62 59 53
679.578 -649.249 3095 68 61 54
683.918 -650.298 3100 75 62 62
688.712 -651.766 3107 86 84 70
691.961 -651.766 3107 98 102 88
696.776 -653.235 3114 114 120 106
700.483 -653.654 3116 130 140 125
704.193 -654.074 3118 139 145 143
708.588 -655.123 3123 149 154 141
727.429 -660.367 3148 147 145 134
733.507 -662.884 3160 146 146 133
740.775 -666.451 3177 146 145 132
750.421 -672.114 3204 145 145 131
756.595 -674.632 3216 145 145 131
762.085 -676.52 3225 145 145 131
766.882 -677.778 3231 145 144 131
772.168 -679.456 3239 144 144 131
775.794 -679.666 3240 143 144 131
779.664 -680.086 3242 143 144 130
783.296 -680.296 3243 143 143 130
786.93 -680.505 3244 142 143 130
790.322 -680.505 3244 142 142 129
792.981 -679.876 3241 142 142 128
796.124 -679.666 3240 141 140 128
799.513 -679.666 3240 141 141 127
802.901 -679.666 3240 141 140 126
808.28 -681.344 3248 139 138 124
812.677 -682.184 3252 136 135 120
817.081 -683.023 3256 126 123 116
822.502 -684.701 3264 115 113 97
826.675 -685.33 3267 111 104 77
832.124 -687.008 3275 107 93 77
837.08 -688.267 3281 100 93 77
842.304 -689.735 3288 94 91 77
845.485 -689.526 3287 92 89 76
847.89 -688.686 3283 90 87 75
851.323 -688.686 3283 91 87 74
854.756 -688.686 3283 91 86 74
858.19 -688.686 3283 91 87 74
860.573 -687.847 3279 92 87 74
862.948 -687.008 3275 92 88 74
866.373 -687.008 3275 92 89 75
869.798 -687.008 3275 93 89 75
873.223 -687.008 3275 95 89 78
876.648 -687.008 3275 98 92 81
880.341 -687.218 3276 101 93 85
885.116 -688.267 3281 101 97 89
889.902 -689.316 3286 101 104 90
894.425 -690.155 3290 99 98 90
898.685 -690.784 3293 98 93 87
903.772 -692.043 3299 94 89 83
908.047 -692.672 3302 90 84 79
910.396 -691.833 3298 86 83 75
910.52 -689.316 3286 83 81 75
911.731 -687.638 3278 83 82 75
912.368 -685.54 3268 84 82 75
-87.6247 -485.294 2325 65 71 66
-85.4864 -486.964 2333 57 64 60
-83.0822 -487.173 2334 41 47 54
-80.7105 -487.59 2336 24 32 37
-78.5021 -489.051 2343 21 24 20
-76.1167 -489.469 2345 18 22 21
-73.79 -490.304 2349 13 20 22
-71.5764 -491.974 2357 8 16 19
-69.3168 -493.435 2364 10 11 17
-67.0425 -494.896 2371 12 12 16
-64.7808 -496.566 2379 13 14 16
-62.5024 -498.235 2387 13 14 17
-60.0061 -498.235 2387 9 10 18
-57.293 -496.357 2378 4 9 21
-54.4835 -493.435 2364 12 12 24
-51.7913 -491.347 2354 20 40 51
-48.9942 -488.008 2338 45 69 79
-46.3501 -485.92 2328 70 41 45
-43.7835 -484.459 2321 43 18 12
-41.2493 -483.207 2315 16 21 21
-38.8116 -482.998 2314 16 22 30
-36.3759 -482.79 2313 15 22 25
-33.9571 -482.79 2313 39 28 21
-31.5382 -482.79 2313 62 52 42
-29.1193 -482.79 2313 65 67 64
-26.7004 -482.79 2313 67 66 62
-24.292 -482.998 2314 67 65 61
-21.8816 -483.207 2315 67 65 60
-19.469 -483.416 2316 68 64 60
-17.0617 -483.833 2318 68 65 60
-14.6439 -484.042 2319 68 66 60
-12.2345 -484.668 2322 68 66 60
551.233 -632.448 3030 82 82 74
554.402 -632.448 3030 82 80 73
557.57 -632.448 3030 78 79 72
561.664 -633.492 3035 74 75 68
569.305 -638.501 3059 69 71 65
575.124 -641.423 3073 63 69 63
579.09 -642.258 3077 63 65 62
583.633 -643.719 3084 62 64 59
587.429 -644.346 3087 61 62 56
591.614 -645.389 3092 59 61 55
595.617 -646.224 3096 61 61 54
599.822 -647.268 3101 62 62 54
602.676 -646.85 3099 62 62 54
605.917 -646.85 3099 61 63 54
609.158 -646.85 3099 62 62 54
612.399 -646.85 3099 63 63 55
615.639 -646.85 3099 63 64 56
618.281 -646.224 3096 62 63 55
621.117 -645.807 3094 62 63 55
623.344 -644.763 3089 61 63 55
626.575 -644.763 3089 61 62 54
629.805 -644.763 3089 61 62 55
633.035 -644.763 3089 62 63 56
636.678 -645.18 3091 63 64 55
640.324 -645.598 3093 63 65 55
643.143 -645.18 3091 63 64 56
646.375 -645.18 3091 63 64 56
649.608 -645.18 3091 63 65 56
