# .PCD v0.7 - Point Cloud Data file format
VERSION 0.7
FIELDS x y z normal_x normal_y normal_z
SIZE 4 4 4 4 4 4
TYPE F F F F F F
COUNT 1 1 1 1 1 1
WIDTH 448
HEIGHT 1
VIEWPOINT 0 0 0 1 0 0 0
POINTS 448
DATA ascii
-258.5271901 350.5579801 1929.551646 0.01136125674 -0.9820248107 0.1884096416
-258.4545262 350.563236 1929.584914 0.01136125674 -0.9820248107 0.1884096416
-255.8202404 350.581022 1929.610861 -0.001810172363 -0.9821137409 0.1882799066
-255.7398874 350.5909608 1929.644634 -0.001810172363 -0.9821137409 0.1882799066
-527.1007276 -15.56758655 1973.494416 0.9495865459 0.136603854 0.2821786293
-524.7684208 -3.138694454 1965.606051 0.9495865459 0.136603854 0.2821786293
-528.5586403 -19.5309834 1974.165365 0.9448101617 0.1047172649 0.3104320421
-526.8696747 -13.98249953 1970.974656 0.9448101617 0.1047172649 0.3104320421
-531.6424783 -5.423885807 2002.125828 0.9839568332 0.1480298107 0.09957974499
-534.8098561 -0.8379961816 1997.158323 0.9839568332 0.1480298107 0.09957974499
-408.6954131 -227.08348 2152.429273 0.5606811433 0.7983739005 -0.2196264343
-406.7273983 -227.9377073 2154.058295 0.5606811433 0.7983739005 -0.2196264343
-386.441205 -234.5875805 2172.580431 0.4592501766 0.8316232664 -0.3122371184
-373.6155827 -238.3744551 2181.896406 0.4592501766 0.8316232664 -0.3122371184
-362.6939014 -242.8776155 2187.970593 0.4591870222 0.8356909745 -0.3012770715
-373.6029518 -239.1879967 2179.704396 0.4591870222 0.8356909745 -0.3012770715
-431.7139844 -209.7729868 2146.787009 0.675774 0.7118214344 -0.1914151153
-433.7363032 -208.122595 2144.548652 0.675774 0.7118214344 -0.1914151153
-344.0006782 -241.915705 2211.592299 0.3657209061 0.8308814219 -0.4193856
-340.7985842 -242.3068393 2213.513232 0.3657209061 0.8308814219 -0.4193856
-263.6278737 350.5985488 1930.426059 0.03686467488 -0.9822276543 0.18403758
-263.6870152 350.5871419 1930.40419 0.03686467488 -0.9822276543 0.18403758
-197.1791006 344.0482194 1942.656985 -0.2871007279 -0.9494335079 0.127079448
-185.1708981 343.7160674 1949.031828 -0.2871007279 -0.9494335079 0.127079448
-532.1671847 16.69962811 1985.693691 0.9749188317 -0.0247322193 0.2211822529
-532.8914087 11.90739731 1988.824614 0.9749188317 -0.0247322193 0.2211822529
-534.2685859 -51.81092013 2032.929478 0.9724211315 0.2292173893 0.04308748517
-534.2295416 -53.76589022 2034.377537 0.9724211315 0.2292173893 0.04308748517
16.72294326 371.0967196 1981.722955 -0.1370018835 -0.8979742709 0.4181778243
7.244105732 370.0847597 1977.621661 -0.1370018835 -0.8979742709 0.4181778243
-113.9180158 328.2327221 1899.126225 -0.06694134342 -0.7892033136 0.6104727565
-123.4818241 326.3626021 1895.608432 -0.06694134342 -0.7892033136 0.6104727565
-536.8012906 -29.60652069 2016.53652 0.9850846551 0.1181953921 0.1250522754
-536.6135389 -22.22660884 2011.241318 0.9850846551 0.1181953921 0.1250522754
-261.9960229 352.2823499 1940.604129 0.02840971328 -0.9907036943 0.1330378829
-263.6698099 352.2980392 1939.737919 0.02840971328 -0.9907036943 0.1330378829
335.5859022 228.8290741 2230.768624 -0.89975049 -0.284617186 -0.3308203639
335.6843578 225.3342481 2233.371898 -0.89975049 -0.284617186 -0.3308203639
-534.410504 -44.20042879 2071.090761 0.9733259433 0.1813900822 -0.1404786321
-533.5992344 -46.39566897 2073.108689 0.9733259433 0.1813900822 -0.1404786321
83.91579933 397.0187851 2074.070397 -0.1512205247 -0.9844631228 0.08924523933
77.53393095 396.6413539 2071.087097 -0.1512205247 -0.9844631228 0.08924523933
114.26873 396.4023163 2080.948329 -0.1645693442 -0.9786021357 0.1235102866
86.58556324 395.8465877 2067.217387 -0.1645693442 -0.9786021357 0.1235102866
-461.7259699 184.7568344 1889.097823 0.83514913 -0.3421257426 0.4306691386
-468.4736841 175.634659 1892.315799 0.83514913 -0.3421257426 0.4306691386
67.90331773 398.2030538 2075.117135 -0.1030674586 -0.9922716226 0.06909505038
54.94892552 397.4786215 2069.030946 -0.1030674586 -0.9922716226 0.06909505038
95.14996908 370.4830386 2001.387651 -0.06132063872 -0.8488313286 0.5250953769
94.7365976 370.3980292 2001.238655 -0.06132063872 -0.8488313286 0.5250953769
122.4803655 387.5356406 2047.389177 -0.2056275216 -0.9342687571 0.291306045
123.5979742 387.4855149 2047.996521 -0.2056275216 -0.9342687571 0.291306045
-93.48701195 332.2886623 1905.856913 -0.03979689092 -0.7816148488 0.6224905105
-68.75222046 338.1032201 1914.2406 -0.03979689092 -0.7816148488 0.6224905105
-424.6081255 230.3383763 1847.266755 0.7355008849 -0.3912702312 0.5531239052
-424.0286909 232.8032114 1845.762073 0.7355008849 -0.3912702312 0.5531239052
-433.447926 215.6401605 1850.41295 0.777596986 -0.3224913168 0.5397613158
-433.0273457 216.5825934 1849.939273 0.777596986 -0.3224913168 0.5397613158
-460.578923 192.4467023 1891.345103 0.8515872784 -0.3386593194 0.4001361926
-465.0135996 184.0635498 1895.204412 0.8515872784 -0.3386593194 0.4001361926
-511.8925791 109.6505557 1944.270193 0.9240495849 -0.2562256528 0.2836913456
-511.1443459 111.3296682 1943.425687 0.9240495849 -0.2562256528 0.2836913456
-496.1623718 118.1954545 1911.321287 0.8775701348 -0.2348123594 0.4180117395
-493.6353442 123.2161142 1908.944129 0.8775701348 -0.2348123594 0.4180117395
329.9893239 165.3173141 2274.495716 -0.8915693624 -0.1463714117 -0.4285784432
330.4187948 168.0329154 2272.731266 -0.8915693624 -0.1463714117 -0.4285784432
-278.8236138 -225.52349 2267.181996 0.1612480416 0.7528141201 -0.6381770677
-278.1597528 -225.4331742 2267.455032 0.1612480416 0.7528141201 -0.6381770677
-318.8591965 -238.6959372 2234.281062 0.256023968 0.8128269114 -0.5232247508
-302.7109275 -237.7661541 2241.848252 0.256023968 0.8128269114 -0.5232247508
-511.2700788 93.18113723 1932.549727 0.8972730884 -0.2341704167 0.3742528834
-507.702077 102.4767473 1927.581279 0.8972730884 -0.2341704167 0.3742528834
53.07328816 -177.0186017 2349.276368 -0.02333931332 0.8425183558 -0.5381617754
53.94913901 -176.8092397 2349.570696 -0.02333931332 0.8425183558 -0.5381617754
147.2623651 -160.6866184 2367.860022 -0.1300984009 0.8501020575 -0.5102949127
130.8030268 -164.9575328 2362.574701 -0.1300984009 0.8501020575 -0.5102949127
94.03014438 -171.339022 2356.236653 -0.05319204729 0.8560031167 -0.5142268665
115.4217561 -166.1377446 2363.361091 -0.05319204729 0.8560031167 -0.5142268665
-530.1078341 -58.15955653 2078.844281 0.9558689418 0.24020952 -0.1691565918
-528.904757 -61.12479535 2081.624783 0.9558689418 0.24020952 -0.1691565918
333.2103412 195.7241992 2256.214909 -0.8946231498 -0.2136071162 -0.3924556278
333.5444831 199.1210022 2253.904154 -0.8946231498 -0.2136071162 -0.3924556278
334.968979 209.9928823 2245.603277 -0.8961735962 -0.2079103569 -0.3919772557
333.8545724 197.9816504 2253.80848 -0.8961735962 -0.2079103569 -0.3919772557
332.4036633 244.272932 2223.901251 -0.8838392952 -0.3618364753 -0.2964834996
332.6128 250.722435 2219.29664 -0.8838392952 -0.3618364753 -0.2964834996
328.4460398 262.1944707 2212.871932 -0.8686870136 -0.4151864711 -0.2701907969
329.5823437 261.3924342 2214.038099 -0.8686870136 -0.4151864711 -0.2701907969
277.3988873 -65.65835076 2383.533764 -0.6974973598 0.4210761026 -0.5798209629
278.1518471 -64.60351156 2383.147708 -0.6974973598 0.4210761026 -0.5798209629
235.3542453 -108.0084422 2387.554114 -0.4887427596 0.6327581477 -0.6006227114
235.6479673 -107.9947598 2387.694113 -0.4887427596 0.6327581477 -0.6006227114
245.7116246 -100.0250124 2386.822577 -0.5405296564 0.5928409985 -0.5969650249
241.4811728 -105.3117094 2388.524192 -0.5405296564 0.5928409985 -0.5969650249
35.77127518 379.6935277 1997.597383 -0.03044843998 -0.9080284492 0.4178004643
7.288479722 373.9863746 1987.221251 -0.03044843998 -0.9080284492 0.4178004643
17.35199947 357.9631484 1958.097193 -0.1401471645 -0.8323064146 0.536306633
29.22822463 358.8419677 1963.520017 -0.1401471645 -0.8323064146 0.536306633
-65.49203778 334.0564119 1909.564044 -0.05609780434 -0.7613808076 0.6458732865
-63.49227767 334.5105297 1910.253521 -0.05609780434 -0.7613808076 0.6458732865
-59.28252119 331.1278325 1906.830004 -0.07068741299 -0.7431789954 0.6653482325
-60.57435594 330.8701673 1906.358532 -0.07068741299 -0.7431789954 0.6653482325
-459.0329266 178.450812 1878.48187 0.8438572964 -0.2686798678 0.464452357
-454.8389074 186.8675412 1874.475138 0.8438572964 -0.2686798678 0.464452357
-446.6834883 226.1298324 1883.427718 0.8290312239 -0.4030149557 0.3876676093
-451.8736929 213.7345588 1889.832087 0.8290312239 -0.4030149557 0.3876676093
-434.4470965 223.6354199 1857.139588 0.7825928384 -0.362467614 0.5061281242
-437.3958112 218.0203641 1859.735615 0.7825928384 -0.362467614 0.5061281242
-96.77360705 -179.1717005 2335.896473 0.1085755139 0.7179103162 -0.6876162707
-78.6211657 -176.1864729 2342.985611 0.1085755139 0.7179103162 -0.6876162707
-65.54940967 -192.9303706 2324.713683 0.04321673378 0.8016298048 -0.596256631
-53.68404167 -189.8209096 2328.501462 0.04321673378 0.8016298048 -0.596256631
-235.3489468 -217.9388225 2280.728507 0.05632160021 0.7418586429 -0.6681868237
-255.9266253 -222.8997997 2273.844178 0.05632160021 0.7418586429 -0.6681868237
-258.5401037 -222.4804519 2274.17639 0.06314979595 0.7380505088 -0.6717838564
-257.2922644 -222.1381729 2274.563584 0.06314979595 0.7380505088 -0.6717838564
-199.9618121 -175.2791255 2320.611192 0.1471306622 0.6022029425 -0.7846682001
-200.5900545 -175.4076421 2320.384251 0.1471306622 0.6022029425 -0.7846682001
-193.3608919 -189.7248454 2309.582907 0.1146419844 0.6745037454 -0.7293160582
-193.4640766 -189.739286 2309.540763 0.1146419844 0.6745037454 -0.7293160582
-59.6290532 -192.777689 2324.475112 0.1223664805 0.8225518106 -0.5553692135
-53.40016555 -192.2961369 2327.304228 0.1223664805 0.8225518106 -0.5553692135
-38.56144085 -198.3848706 2321.611698 0.07820502127 0.854859581 -0.5129318389
-44.56787371 -198.7576909 2318.816753 0.07820502127 0.854859581 -0.5129318389
-54.44118105 -188.4014775 2331.659995 0.09642711975 0.8006707536 -0.5912936283
-57.22093098 -189.1193923 2330.764908 0.09642711975 0.8006707536 -0.5912936283
-488.3714331 141.3983743 1908.191306 0.8834851704 -0.2596127607 0.3899425191
-494.8183513 128.1761945 1914.557973 0.8834851704 -0.2596127607 0.3899425191
-115.2247246 328.5320119 1899.37747 -0.06040779956 -0.7906997626 0.6092165323
-106.057465 330.5063219 1902.616648 -0.06040779956 -0.7906997626 0.6092165323
-104.7130082 333.0980734 1906.062428 -0.04454316111 -0.7987866743 0.5999631286
-109.2303927 332.1237042 1904.467328 -0.04454316111 -0.7987866743 0.5999631286
-102.1545162 333.8079487 1907.121322 -0.03597129478 -0.7975971713 0.6021169473
-106.4273815 332.8601728 1905.631664 -0.03597129478 -0.7975971713 0.6021169473
-92.49639676 332.8167432 1906.590539 -0.04474996687 -0.7842552533 0.6188223802
-100.3987818 331.1395651 1903.780235 -0.04474996687 -0.7842552533 0.6188223802
-188.0751348 333.9354582 1900.883076 -0.08945986793 -0.88758272 0.4518781332
-185.8973162 334.0904724 1901.88198 -0.08945986793 -0.88758272 0.4518781332
-110.8921843 298.1975061 1931.865439 -0.6584942968 -0.7218407014 0.2129113968
-110.3421633 297.8416061 1932.406304 -0.6584942968 -0.7218407014 0.2129113968
-148.0517745 330.8448913 1900.735678 -0.03974220088 -0.8331030547 0.5516881889
-152.6305343 330.0619933 1898.969364 -0.03974220088 -0.8331030547 0.5516881889
-526.6917 85.07001087 1976.454632 0.9640316538 -0.2107441914 0.1619563405
-529.4543845 77.38820509 1980.655435 0.9640316538 -0.2107441914 0.1619563405
-536.790438 45.88489976 2003.048472 0.9938597426 -0.08558466897 0.07012899836
-535.4200022 52.3563006 1999.020903 0.9938597426 -0.08558466897 0.07012899836
-514.2123357 97.26574787 1943.067834 0.9119843731 -0.2545934699 0.3216623515
-516.2822439 93.83986658 1944.51343 0.9119843731 -0.2545934699 0.3216623515
332.1211512 183.0283699 2264.201041 -0.8898453679 -0.1551115144 -0.4290869833
330.0739959 169.7809359 2272.832974 -0.8898453679 -0.1551115144 -0.4290869833
57.7644959 -180.1295284 2343.971082 -0.06174827519 0.8541257331 -0.5163878219
42.30695175 -184.3372276 2339.151165 -0.06174827519 0.8541257331 -0.5163878219
38.04751067 -196.3678084 2318.9759 -0.1180420022 0.8910939799 -0.4381981341
53.56569716 -191.7308769 2323.513228 -0.1180420022 0.8910939799 -0.4381981341
53.69330884 -175.5871341 2351.457114 -0.02643941676 0.8353610177 -0.5490655037
50.70272422 -176.3765853 2350.506618 -0.02643941676 0.8353610177 -0.5490655037
-19.62272489 -201.6153192 2317.222383 -0.01648855853 0.8710118239 -0.4909852645
-18.30438898 -201.072121 2317.498804 -0.01648855853 0.8710118239 -0.4909852645
-182.54088 -205.6348388 2294.52301 0.06054192483 0.7540537121 -0.6540165706
-180.5679604 -205.14235 2295.17075 0.06054192483 0.7540537121 -0.6540165706
-297.1094193 -241.0211238 2239.301055 0.2280164269 0.82910176 -0.5104887665
-293.1490238 -240.999836 2241.307951 0.2280164269 0.82910176 -0.5104887665
-283.9701695 -232.4727781 2256.983636 0.1869808201 0.7875605605 -0.5871852659
-284.9419024 -232.6915961 2256.647251 0.1869808201 0.7875605605 -0.5871852659
115.0141271 386.809649 2041.034251 0.01779240783 -0.9137883305 0.4058008345
117.0925903 387.1415624 2041.85319 0.01779240783 -0.9137883305 0.4058008345
85.04690493 384.3590778 2027.21813 -0.01080531793 -0.9182115246 0.3959429773
120.7336723 387.6942878 2043.005823 -0.01080531793 -0.9182115246 0.3959429773
-17.39864385 348.3525737 1932.084921 -0.1404841755 -0.7973050274 0.586999906
-8.988248373 349.4770073 1935.558433 -0.1404841755 -0.7973050274 0.586999906
-11.77284923 361.9138597 1953.920312 -0.1085465789 -0.8574861087 0.5029266483
-15.3757677 361.5132235 1952.373085 -0.1085465789 -0.8574861087 0.5029266483
331.0793787 96.89777974 2311.195631 -0.9202174049 -0.2684551874 -0.2848363391
330.9171096 100.6867765 2308.344874 -0.9202174049 -0.2684551874 -0.2848363391
192.9037072 -147.4686544 2372.202957 -0.2976423288 0.8036257237 -0.5153588462
190.9103395 -148.365272 2371.839994 -0.2976423288 0.8036257237 -0.5153588462
-158.2470195 332.4887999 1901.936319 -0.03985443376 -0.8497181359 0.5257287453
-175.0350601 329.3619512 1895.647392 -0.03985443376 -0.8497181359 0.5257287453
330.2660494 165.3078862 2273.920891 -0.8929529894 -0.1463242723 -0.4257043176
328.4424146 153.6639372 2281.495612 -0.8929529894 -0.1463242723 -0.4257043176
80.65932357 -177.1550312 2346.303326 -0.08249242836 0.8633621736 -0.4977958984
85.8603825 -175.8901316 2348.035322 -0.08249242836 0.8633621736 -0.4977958984
86.80474747 -174.0863117 2352.034449 -0.01706506276 0.8697395652 -0.4932158476
72.77490938 -177.16561 2347.119311 -0.01706506276 0.8697395652 -0.4932158476
-133.858403 -192.3254415 2317.35364 0.09605132269 0.7408858922 -0.6647271908
-120.1876972 -190.113353 2322.718884 0.09605132269 0.7408858922 -0.6647271908
329.3074241 103.9685506 2301.212542 -0.9242205987 -0.1593374764 -0.3470271656
329.8669044 110.8750474 2296.453003 -0.9242205987 -0.1593374764 -0.3470271656
326.9868427 105.2445495 2305.176692 -0.9169885484 -0.1931827935 -0.3490163468
327.1216883 107.1710385 2303.838239 -0.9169885484 -0.1931827935 -0.3490163468
323.8740471 106.0765903 2312.531604 -0.9001109391 -0.1838844293 -0.3949516603
323.7461664 105.3113657 2313.025302 -0.9001109391 -0.1838844293 -0.3949516603
330.0376089 100.7498212 2300.665121 -0.9278715223 -0.1432438294 -0.3442900572
329.4261637 97.94847034 2302.399283 -0.9278715223 -0.1432438294 -0.3442900572
-249.2847736 350.863073 1931.73858 -0.0340857414 -0.9834743018 0.1778101794
-249.1374181 350.8732509 1931.806394 -0.0340857414 -0.9834743018 0.1778101794
-226.5861276 346.5426309 1921.117869 -0.140065593 -0.9619055654 0.2347750263
-227.9414478 346.5595036 1920.413425 -0.140065593 -0.9619055654 0.2347750263
-184.8265104 340.5088182 1915.778713 -0.04580911643 -0.9139483993 0.403236715
-189.8883373 339.9190722 1913.624614 -0.04580911643 -0.9139483993 0.403236715
-188.4479335 337.639723 1908.633099 -0.06869442032 -0.9042554221 0.4214299566
-185.3112765 337.9804767 1909.985966 -0.06869442032 -0.9042554221 0.4214299566
-187.6437813 337.391266 1908.326605 -0.08072754254 -0.904086688 0.4196550064
-186.0413091 337.6059762 1908.988089 -0.08072754254 -0.904086688 0.4196550064
-181.5733687 339.984683 1914.543971 -0.03392005064 -0.9067008268 0.4204081835
-187.2043235 339.0593037 1912.344419 -0.03392005064 -0.9067008268 0.4204081835
-167.1033793 330.033408 1897.654392 -0.0795128378 -0.85307542 0.5156937429
-172.4548113 329.2596016 1895.486859 -0.0795128378 -0.85307542 0.5156937429
-123.5679868 324.5824002 1893.331819 -0.06651052986 -0.7803023045 0.6218558218
-130.330487 323.1884851 1890.896692 -0.06651052986 -0.7803023045 0.6218558218
-149.6144431 327.3889589 1895.589509 -0.03192885784 -0.8158233927 0.5774190333
-137.2468214 330.2927028 1899.78405 -0.03192885784 -0.8158233927 0.5774190333
-201.8605255 343.4353168 1920.753072 -0.03381029539 -0.9371576727 0.3472641076
-217.1021781 341.3586585 1914.486663 -0.03381029539 -0.9371576727 0.3472641076
-192.1211662 334.9851473 1902.250893 -0.06922971071 -0.8928311655 0.4450390512
-194.7766424 334.5700154 1901.198083 -0.06922971071 -0.8928311655 0.4450390512
-483.4780953 135.9462433 1894.943907 0.8590184812 -0.2323521061 0.4561795127
-482.5977507 137.5784683 1894.201118 0.8590184812 -0.2323521061 0.4561795127
-186.1345121 -204.4473559 2295.336359 0.088374683 0.7505787415 -0.6548446138
-184.4876571 -204.2191181 2296.010625 0.088374683 0.7505787415 -0.6548446138
40.16741867 -198.8966705 2312.996167 -0.1286415422 0.9037382906 -0.4082994682
30.50528679 -201.5762978 2310.019514 -0.1286415422 0.9037382906 -0.4082994682
-126.2586501 -195.6206169 2315.240383 0.1264060876 0.7684222116 -0.6273346839
-124.5044951 -195.3417562 2315.932464 0.1264060876 0.7684222116 -0.6273346839
-99.92371794 -181.0343736 2333.382662 0.1243260684 0.7272236817 -0.6750472172
-108.9888894 -183.3095737 2330.41542 0.1243260684 0.7272236817 -0.6750472172
-134.5705141 -179.3982733 2331.099808 0.1767361827 0.6887047971 -0.7031714045
-119.4709123 -175.6057968 2336.040258 0.1767361827 0.6887047971 -0.7031714045
-9.40403362 359.222763 1949.984181 -0.1203906569 -0.8440306251 0.5226073034
-8.418717134 359.7172445 1950.126128 -0.1203906569 -0.8440306251 0.5226073034
4.795763327 356.9962839 1949.647687 -0.1864630592 -0.8304258219 0.5249995065
6.175613416 356.7788824 1950.511146 -0.1864630592 -0.8304258219 0.5249995065
19.85106607 368.7606047 1979.900169 -0.2000366851 -0.8913534961 0.4067852869
16.43922208 369.234286 1977.811822 -0.2000366851 -0.8913534961 0.4067852869
331.7286281 113.3243911 2288.923751 -0.9288639011 -0.305920491 -0.2088648042
331.7470558 113.1784866 2289.039746 -0.9288639011 -0.305920491 -0.2088648042
50.81238425 386.572989 2150.333274 -0.08238475226 -0.9377434602 -0.3374165905
51.53405441 388.9710552 2148.950002 -0.08238475226 -0.9377434602 -0.3374165905
118.1937894 394.4447055 2060.797197 0.01228641217 -0.9503040461 0.3110807998
124.8762127 395.4376756 2063.484325 0.01228641217 -0.9503040461 0.3110807998
122.3505856 387.4665576 2043.126185 0.02491454768 -0.9104484558 0.4128714989
123.1457268 387.5804843 2043.449014 0.02491454768 -0.9104484558 0.4128714989
157.0291502 -161.8863374 2362.770085 -0.1789323264 0.8561006525 -0.4848452282
162.9306615 -160.1104694 2364.486513 -0.1789323264 0.8561006525 -0.4848452282
152.3152639 -167.5972044 2353.486838 -0.1046669509 0.8997853859 -0.4235930697
148.0775864 -168.847416 2352.236081 -0.1046669509 0.8997853859 -0.4235930697
329.4248066 112.7696697 2299.842619 -0.9127558902 -0.3288696535 -0.2423250623
328.5907288 117.3302479 2296.085146 -0.9127558902 -0.3288696535 -0.2423250623
330.1734614 115.5716819 2292.30663 -0.9209959293 -0.3178864674 -0.2251992275
330.1820972 115.4822448 2292.376375 -0.9209959293 -0.3178864674 -0.2251992275
328.8725363 118.2063186 2293.770721 -0.9141649275 -0.3332500071 -0.2307529372
328.8158968 118.5549528 2293.487117 -0.9141649275 -0.3332500071 -0.2307529372
-67.43217926 -183.2995451 2336.26822 0.1474833611 0.7715715178 -0.6188101898
-70.64283295 -183.6250807 2334.866449 0.1474833611 0.7715715178 -0.6188101898
-70.02272835 -191.4091289 2323.965855 0.1249101672 0.8095709014 -0.573578596
-68.33440523 -191.4676764 2324.870797 0.1249101672 0.8095709014 -0.573578596
-77.19969457 -187.0190558 2328.697954 0.1802676692 0.7885413933 -0.5879677189
-79.40590564 -187.2617748 2327.748621 0.1802676692 0.7885413933 -0.5879677189
-505.3934484 109.2028286 1925.831857 0.8952950973 -0.2455914549 0.3716604983
-499.7073643 120.3512737 1920.591535 0.8952950973 -0.2455914549 0.3716604983
333.4046748 98.50553922 2289.711315 -0.949077709 -0.1594877423 -0.2716894595
333.3620717 97.70635017 2290.273372 -0.949077709 -0.1594877423 -0.2716894595
333.7961443 106.823316 2282.035311 -0.9511453665 -0.2071853464 -0.228903307
333.7756033 107.245871 2281.716142 -0.9511453665 -0.2071853464 -0.228903307
326.9239772 114.480487 2302.238175 -0.909505963 -0.1773646741 -0.3759530232
327.8165669 122.7046456 2296.686182 -0.909505963 -0.1773646741 -0.3759530232
330.9769184 118.399071 2284.258441 -0.9251053527 -0.3312938907 -0.1855382556
330.2255274 121.4801873 2281.623951 -0.9251053527 -0.3312938907 -0.1855382556
324.8768126 134.7182118 2281.907515 -0.8983617787 -0.3974840136 -0.1869560739
324.3307713 136.9247076 2280.016808 -0.8983617787 -0.3974840136 -0.1869560739
328.5073169 141.6657668 2286.175614 -0.9033019204 -0.167420929 -0.3949884467
327.9641952 136.8556264 2289.412103 -0.9033019204 -0.167420929 -0.3949884467
329.4851805 149.5912716 2280.933873 -0.9023152761 -0.1595910932 -0.4004470321
330.0417384 154.2582796 2277.808805 -0.9023152761 -0.1595910932 -0.4004470321
328.934558 127.1405136 2291.797058 -0.9124406173 -0.1682205027 -0.3730334868
329.7919346 137.0155411 2285.021111 -0.9124406173 -0.1682205027 -0.3730334868
329.2214187 152.8160282 2280.17971 -0.898213678 -0.1523798364 -0.4123015574
329.4945523 154.87505 2278.81506 -0.898213678 -0.1523798364 -0.4123015574
38.57453356 357.9770162 1961.339422 -0.04446473186 -0.799445892 0.5990902714
40.97275455 358.5486489 1962.146534 -0.04446473186 -0.799445892 0.5990902714
124.3216085 389.5464005 2047.862966 0.01903513962 -0.9202780367 0.3908017382
125.5420083 389.7813069 2048.314584 0.01903513962 -0.9202780367 0.3908017382
319.2980017 7.674484216 2356.576727 -0.8757237957 0.1104555038 -0.4700078887
318.6806408 5.760978209 2357.659291 -0.8757237957 0.1104555038 -0.4700078887
307.5902864 -22.35667423 2366.445035 -0.8202720232 0.2510437659 -0.5139366066
304.1202786 -28.06619028 2368.843858 -0.8202720232 0.2510437659 -0.5139366066
298.9262471 -36.31616682 2372.939644 -0.8013693599 0.2796393788 -0.5287806414
300.339746 -33.78531286 2371.812665 -0.8013693599 0.2796393788 -0.5287806414
327.4720701 45.60774465 2343.135245 -0.9059774574 -0.04732400939 -0.4206724199
327.5297294 45.93046158 2342.928943 -0.9059774574 -0.04732400939 -0.4206724199
323.9816684 22.61894113 2349.814262 -0.8991421289 0.0357332192 -0.4361955629
325.77744 28.12471882 2346.709293 -0.8991421289 0.0357332192 -0.4361955629
331.413815 68.01978862 2328.014623 -0.9218874914 -0.1289280613 -0.3653778977
330.8988998 63.9186477 2330.747586 -0.9218874914 -0.1289280613 -0.3653778977
25.70584649 356.7438995 1958.725041 -0.2463698072 -0.8289015636 0.5022191912
22.03698514 357.0917403 1956.59737 -0.2463698072 -0.8289015636 0.5022191912
14.09661702 353.0141135 1947.771462 -0.2260680772 -0.8116019772 0.5386979257
17.97663915 353.6318231 1949.301624 -0.2260680772 -0.8116019772 0.5386979257
-36.46627007 336.011687 1913.926523 -0.09120504317 -0.7448183807 0.6610047048
-33.71839334 336.6833916 1914.83909 -0.09120504317 -0.7448183807 0.6610047048
-63.3576826 334.0451769 1909.782802 -0.05031160592 -0.7577657173 0.6505842452
-44.64495752 338.6011543 1916.010615 -0.05031160592 -0.7577657173 0.6505842452
-21.69326087 352.2708703 1936.610379 -0.1190110904 -0.8168965105 0.5643726176
-23.18663801 352.4378821 1935.725755 -0.1190110904 -0.8168965105 0.5643726176
-33.49231073 344.6441537 1924.428094 -0.0923354562 -0.7846221916 0.6130596872
-28.52176485 345.9830183 1925.988342 -0.0923354562 -0.7846221916 0.6130596872
-136.1952601 -190.0653507 2319.478277 0.1077356081 0.7295854385 -0.6753503733
-150.281742 -192.1643561 2313.818101 0.1077356081 0.7295854385 -0.6753503733
-148.2350026 -194.1507641 2311.955725 0.09750191136 0.7395174782 -0.666038495
-157.5054602 -196.4951803 2308.934214 0.09750191136 0.7395174782 -0.666038495
-194.3763156 -189.4855589 2309.651215 0.1378179757 0.6769109459 -0.723047562
-165.568673 -183.9738738 2320.336027 0.1378179757 0.6769109459 -0.723047562
-513.900587 108.5551238 1950.174707 0.9340896241 -0.2507484934 0.254168777
-515.0653841 105.7923626 1951.5981 0.9340896241 -0.2507484934 0.254168777
268.5149463 358.692139 2122.675791 -0.595784961 -0.7976198028 0.09403685715
265.2980348 359.4945953 2120.446817 -0.595784961 -0.7976198028 0.09403685715
308.2533216 320.2958418 2148.396621 -0.7894840607 -0.6131989542 -0.02649453635
307.2547662 321.8079693 2146.78207 -0.7894840607 -0.6131989542 -0.02649453635
325.586529 272.9157865 2203.667566 -0.8543894598 -0.4687930502 -0.22416897
322.4055462 283.8655202 2194.044278 -0.8543894598 -0.4687930502 -0.22416897
323.3899001 285.6057444 2185.862102 -0.859311229 -0.4774941711 -0.1832580921
322.2187552 293.1548852 2179.749332 -0.859311229 -0.4774941711 -0.1832580921
29.24372886 -203.8713851 2305.149799 -0.1223337526 0.915213727 -0.3839508912
26.41295518 -204.6289619 2304.257629 -0.1223337526 0.915213727 -0.3839508912
26.44813956 -206.0350042 2300.804344 -0.1225096745 0.9222439383 -0.3666844664
24.87853694 -206.3257956 2300.215224 -0.1225096745 0.9222439383 -0.3666844664
-434.0296769 -204.6884604 2154.765166 0.6772408687 0.6946507614 -0.2424976814
-435.6462817 -205.9995071 2154.897347 0.6772408687 0.6946507614 -0.2424976814
322.0304456 140.6314008 2282.829339 -0.88686015 -0.4160174794 -0.2010187333
321.9940392 140.8869629 2282.624058 -0.88686015 -0.4160174794 -0.2010187333
329.3603667 123.9909115 2280.448664 -0.9270623056 -0.3142065485 -0.2045231686
329.8844135 121.180815 2282.769075 -0.9270623056 -0.3142065485 -0.2045231686
333.2780763 189.0491366 2259.264344 -0.8956299932 -0.1852153482 -0.404403499
333.4117099 190.0458456 2258.604483 -0.8956299932 -0.1852153482 -0.404403499
328.9182557 149.7948989 2282.11912 -0.8994806522 -0.16060923 -0.4063732664
327.7430633 140.303427 2288.452578 -0.8994806522 -0.16060923 -0.4063732664
132.4111766 397.453211 2069.631421 -0.01531070204 -0.958637557 0.2842175517
138.6633773 398.4602695 2072.088556 -0.01531070204 -0.958637557 0.2842175517
331.4183014 89.47230597 2316.378397 -0.9219120188 -0.2313278186 -0.310750173
331.4495268 89.00888057 2316.732879 -0.9219120188 -0.2313278186 -0.310750173
331.4784323 77.82856914 2323.598676 -0.9222105779 -0.1779719639 -0.3432981649
331.5092387 78.33770963 2323.242477 -0.9222105779 -0.1779719639 -0.3432981649
329.9519605 59.92847159 2334.517827 -0.9180886127 -0.1173140594 -0.3786168388
330.139124 61.59584733 2333.395375 -0.9180886127 -0.1173140594 -0.3786168388
326.6927671 33.71187134 2345.279895 -0.9020809423 0.01215535716 -0.4313956663
326.6470067 33.47778734 2345.427526 -0.9020809423 0.01215535716 -0.4313956663
324.4411394 22.93522626 2348.847924 -0.892460626 0.06168068204 -0.446888716
324.7229435 23.57272236 2348.526136 -0.892460626 0.06168068204 -0.446888716
-121.345713 285.5513088 1885.612493 -0.6034765482 -0.660389215 0.4468804543
-120.5050477 285.3283833 1886.204642 -0.6034765482 -0.660389215 0.4468804543
-188.1268622 333.4226432 1904.868854 -0.2238121937 -0.8999653032 0.374126389
-196.4379186 333.2436009 1900.755456 -0.2238121937 -0.8999653032 0.374126389
-196.4591696 335.9829855 1905.807381 -0.137025338 -0.9102793077 0.3906605159
-205.4842333 335.4854441 1901.562028 -0.137025338 -0.9102793077 0.3906605159
-194.278447 -180.2626218 2317.615261 0.1155726249 0.6264778412 -0.77082325
-195.5698663 -180.5295673 2317.15078 0.1155726249 0.6264778412 -0.77082325
-205.976601 -194.4707434 2303.287058 0.09524674325 0.6802192727 -0.7267941929
-191.5046899 -191.2778536 2308.344969 0.09524674325 0.6802192727 -0.7267941929
-201.6792397 -190.9698269 2307.075685 0.05644894939 0.657854203 -0.7510268729
-198.2170423 -189.9977295 2308.133594 0.05644894939 0.657854203 -0.7510268729
-153.3701002 328.1968357 1895.751657 -0.06423903045 -0.8282583149 0.5566520554
-150.7862614 328.5921337 1896.782373 -0.06423903045 -0.8282583149 0.5566520554
-152.4260629 333.9583244 1905.107662 -0.04076455796 -0.8525847103 0.5209967011
-155.4811559 333.4574128 1903.913444 -0.04076455796 -0.8525847103 0.5209967011
328.6365539 119.5645201 2289.30181 -0.9253474141 -0.270891367 -0.2652358016
328.9611877 116.8663287 2291.438639 -0.9253474141 -0.270891367 -0.2652358016
326.5248897 123.8717902 2291.808473 -0.9128849206 -0.3136109418 -0.2613222127
326.468689 125.4102436 2290.655921 -0.9128849206 -0.3136109418 -0.2613222127
325.9859964 126.2789117 2291.229296 -0.9075702203 -0.3396970323 -0.2468242726
326.0903971 125.9114547 2291.55104 -0.9075702203 -0.3396970323 -0.2468242726
-435.564809 -210.5139283 2139.556679 0.6768335053 0.7172228676 -0.1657943437
-439.7700718 -207.157915 2134.957594 0.6768335053 0.7172228676 -0.1657943437
328.5164975 128.0101839 2292.418626 -0.9103503147 -0.172568854 -0.3761413234
327.9854372 121.7454815 2296.723842 -0.9103503147 -0.172568854 -0.3761413234
92.47146677 -176.4834332 2344.796278 -0.1415531444 0.8600041837 -0.4902606565
87.91534994 -177.5157876 2343.223758 -0.1415531444 0.8600041837 -0.4902606565
116.5994981 -169.041426 2345.470481 -0.2851043571 0.8170533993 -0.5011379533
116.6255925 -168.9256308 2345.399217 -0.2851043571 0.8170533993 -0.5011379533
-196.9449443 -187.8735264 2309.564772 0.0006163769412 0.6337117271 -0.7735690448
-196.4167092 -187.606076 2309.63915 0.0006163769412 0.6337117271 -0.7735690448
-198.8824474 -188.7690629 2308.81305 0.0103038922 0.6381894099 -0.7698104357
-204.6949432 -190.6427729 2307.213554 0.0103038922 0.6381894099 -0.7698104357
-227.9442798 -209.9994576 2289.442308 0.01929826515 0.7021618187 -0.7117558271
-219.92983 -207.5496897 2291.745457 0.01929826515 0.7021618187 -0.7117558271
-207.3235954 -197.4228475 2301.271135 0.02344715306 0.6720897833 -0.7400983409
-220.7596076 -201.5352826 2297.413959 0.02344715306 0.6720897833 -0.7400983409
324.4005761 134.3778446 2284.818888 -0.8988928345 -0.3834718878 -0.2119928853
324.3789422 134.4297525 2284.769921 -0.8988928345 -0.3834718878 -0.2119928853
325.6531911 127.6570643 2290.716354 -0.9053841904 -0.3484250801 -0.2426508427
325.6772133 127.420391 2290.901513 -0.9053841904 -0.3484250801 -0.2426508427
-9.819131789 -204.8865849 2309.696277 -0.05891484448 0.8900841437 -0.45197263
2.392933537 -202.5008025 2314.189756 -0.05891484448 0.8900841437 -0.45197263
15.56571499 -208.0170624 2299.245981 -0.1247787518 0.9176654429 -0.3772537582
19.04688338 -206.9321852 2300.231192 -0.1247787518 0.9176654429 -0.3772537582
24.41632751 -207.0382847 2298.553941 -0.1201986274 0.9258063837 -0.3583780544
18.1308585 -208.5603733 2296.456051 -0.1201986274 0.9258063837 -0.3583780544
163.4221582 397.9952642 2078.590745 -0.1257835301 -0.9575418379 0.2594072709
160.7579429 398.2411257 2077.050612 -0.1257835301 -0.9575418379 0.2594072709
203.359904 394.1363869 2107.011996 -0.325472259 -0.9382474515 0.1173010163
207.3997196 393.410466 2109.605291 -0.325472259 -0.9382474515 0.1173010163
266.0342511 360.0345364 2141.527057 -0.5994660426 -0.8003195084 -0.01136434092
262.1984763 365.8248774 2135.338362 -0.5994660426 -0.8003195084 -0.01136434092
-480.2042491 141.6947945 1891.942813 0.8470509731 -0.252933737 0.4674710405
-479.3655573 143.2786879 1891.21406 0.8470509731 -0.252933737 0.4674710405
81.42055742 -174.4806733 2349.88383 -0.1255002911 0.8397644855 -0.5282473718
83.919718 -173.7812099 2350.649108 -0.1255002911 0.8397644855 -0.5282473718
112.3734789 -166.4580092 2351.766573 -0.2639742611 0.8041363154 -0.5326184148
111.614512 -166.6555759 2351.523317 -0.2639742611 0.8041363154 -0.5326184148
64.6216543 -178.8133468 2345.339358 -0.07670188976 0.8525388915 -0.5170050856
71.66087714 -177.0355545 2347.635373 -0.07670188976 0.8525388915 -0.5170050856
-201.8513129 -188.2948218 2309.364537 0.05730931546 0.6444791778 -0.762471135
-206.627286 -189.4527637 2307.771486 0.05730931546 0.6444791778 -0.762471135
-200.3227823 -188.4023255 2308.930767 0.02014674253 0.6376929744 -0.7700271288
-199.1947714 -188.095523 2309.282685 0.02014674253 0.6376929744 -0.7700271288
14.9406809 406.7433983 2112.037577 0.113595326 -0.9765734871 -0.1827575612
13.37374275 403.5536804 2113.567505 0.113595326 -0.9765734871 -0.1827575612
-465.0323269 166.7846652 1880.013791 0.817942344 -0.2978757735 0.4921791802
-466.9193715 164.0146165 1881.073679 0.817942344 -0.2978757735 0.4921791802
-479.4899776 153.875335 1898.021438 0.8476730748 -0.3059169725 0.4334341521
-472.8655176 165.6228564 1892.822684 0.8476730748 -0.3059169725 0.4334341521
-13.14573539 391.588941 2003.863829 0.2257367119 -0.9092165988 0.3498115398
-13.0675342 380.5027902 2012.00228 0.2257367119 -0.9092165988 0.3498115398
31.9960199 372.315173 1956.812288 0.02831863097 -0.8044323607 0.5933688838
26.3378808 370.6320934 1955.15236 0.02831863097 -0.8044323607 0.5933688838
-21.20839722 380.3946963 2150.771066 0.2813275059 -0.8948616653 -0.3465219104
-20.17269323 387.211316 2146.320375 0.2813275059 -0.8948616653 -0.3465219104
-491.7766344 -142.1210994 2091.945448 0.8630272526 0.5005946641 -0.06774174146
-488.8927037 -146.1509491 2096.362014 0.8630272526 0.5005946641 -0.06774174146
-500.5015583 -125.2948244 2093.744248 0.8991050229 0.4285087703 -0.08938899009
-500.0487713 -126.096906 2094.561399 0.8991050229 0.4285087703 -0.08938899009
-494.792172 -136.6088387 2093.121206 0.8728220265 0.4810684337 -0.08218802903
-493.7355892 -138.2158533 2094.834706 0.8728220265 0.4810684337 -0.08218802903
-524.6811924 -78.56900946 2075.382995 0.934751119 0.3274305905 -0.1379476494
-508.1951577 -103.8895337 2102.298717 0.934751119 0.3274305905 -0.1379476494
-504.4166345 -116.4817583 2093.704644 0.9176266402 0.3867822542 -0.09143761278
-504.2058817 -116.9495212 2094.153973 0.9176266402 0.3867822542 -0.09143761278
-506.3801625 -110.5030007 2097.656888 0.9256761429 0.3604979254 -0.114738504
-506.0265351 -111.2248925 2098.364822 0.9256761429 0.3604979254 -0.114738504
-475.1415452 -167.461291 2109.290323 0.8404319465 0.5387153311 -0.05882121443
-484.3736425 -153.7750825 2094.577909 0.8404319465 0.5387153311 -0.05882121443
-460.9153562 -186.4244644 2122.916934 0.7825599273 0.6135556142 -0.1055910438
-463.5671413 -182.4293476 2118.644289 0.7825599273 0.6135556142 -0.1055910438
-369.7654769 293.1802473 1846.102125 0.4641848152 -0.6931554107 0.551423643
-367.7051034 293.6343231 1846.822586 0.4641848152 -0.6931554107 0.551423643
-318.5013165 336.9711242 1896.953189 0.2559679639 -0.9116841358 0.3214225225
-326.0617331 337.3400681 1892.82281 0.2559679639 -0.9116841358 0.3214225225
-252.3458191 348.1564698 1918.049641 -0.02821024046 -0.9699958473 0.2414792715
-261.6656756 348.6334664 1912.941839 -0.02821024046 -0.9699958473 0.2414792715
