# .PCD v0.7 - Point Cloud Data file format
VERSION 0.7
FIELDS x y z normal_x normal_y normal_z
SIZE 4 4 4 4 4 4
TYPE F F F F F F
COUNT 1 1 1 1 1 1
WIDTH 450
HEIGHT 1
VIEWPOINT 0 0 0 1 0 0 0
POINTS 450
DATA ascii
-539.4674241 22.57466995 2074.91345 0.9974833568 0.07087060834 0.002075981318
-538.8732316 17.51904191 2070.070995 0.9974833568 0.07087060834 0.002075981318
-450.2075639 241.1622447 2279.92076 0.7837889629 -0.440080825 -0.4381823012
-455.3223579 237.5426629 2275.950744 0.7837889629 -0.440080825 -0.4381823012
-442.4668194 237.2894817 2295.791822 0.7450852403 -0.4207170099 -0.5175376143
-439.6263099 239.6256932 2298.312378 0.7450852403 -0.4207170099 -0.5175376143
-539.2058163 25.26203167 2065.298803 0.99914628 0.03215565954 0.02593693868
-537.604805 15.05889555 2055.562374 0.99914628 0.03215565954 0.02593693868
-494.7509989 204.9669717 2223.426165 0.9037738846 -0.3471707473 -0.2503302572
-496.7527312 201.8039212 2220.180972 0.9037738846 -0.3471707473 -0.2503302572
-529.0662453 -33.0316779 1965.931158 0.9448101617 0.1047172649 0.3104320421
-529.2009269 -29.84600975 1969.004269 0.9448101617 0.1047172649 0.3104320421
-340.7622231 319.0738956 2333.257207 0.5316761403 -0.6676222045 -0.5211535991
-312.8567933 330.161593 2346.529547 0.5316761403 -0.6676222045 -0.5211535991
-509.4760542 193.6571367 2170.519943 0.8835399374 -0.4455495288 -0.1443703447
-514.0973146 188.8150672 2165.410754 0.8835399374 -0.4455495288 -0.1443703447
-417.929603 279.913633 2288.085911 0.6706163674 -0.597579636 -0.4395136703
-400.3237426 290.9851201 2300.407342 0.6706163674 -0.597579636 -0.4395136703
-18.08494436 365.6232924 2406.137571 -0.1550618852 -0.7439847762 -0.6499557405
-15.058425 365.1377002 2405.942082 -0.1550618852 -0.7439847762 -0.6499557405
90.9521918 375.903558 2386.85667 -0.05645066106 -0.8405299325 -0.5388160683
88.15228236 375.9340308 2386.631949 -0.05645066106 -0.8405299325 -0.5388160683
-269.8468161 -220.7594466 1835.381053 0.2737286622 0.6861590896 0.6739868865
-268.5742688 -221.1332223 1835.134597 0.2737286622 0.6861590896 0.6739868865
-271.1156448 -217.6577856 1832.804962 0.2800728056 0.6706507844 0.6868673445
-285.9158032 -213.3097508 1835.672195 0.2800728056 0.6706507844 0.6868673445
-456.1345049 259.7187219 2243.35416 0.7878496979 -0.5509611198 -0.2751993786
-467.498785 251.0690346 2233.944997 0.7878496979 -0.5509611198 -0.2751993786
-480.6659993 239.2821343 2211.534262 0.8333488868 -0.5187465606 -0.1908707384
-476.5986228 244.6261228 2217.079269 0.8333488868 -0.5187465606 -0.1908707384
-477.3973109 -78.75817845 1898.766948 0.6864654896 0.3333497676 0.646253096
-472.858163 -76.41706026 1901.446494 0.6864654896 0.3333497676 0.646253096
-459.7755108 -85.6674078 1892.480455 0.6270438 0.3721030022 0.6843649821
-460.9738251 -84.16770717 1893.824116 0.6270438 0.3721030022 0.6843649821
-423.9922896 270.302301 2291.11654 0.7009298004 -0.5495229762 -0.454666816
-428.5063206 267.0454899 2287.552421 0.7009298004 -0.5495229762 -0.454666816
-436.3843032 254.6570274 2289.218885 0.7288752066 -0.495873681 -0.4720701491
-434.0954019 256.3156308 2291.033087 0.7288752066 -0.495873681 -0.4720701491
270.6447329 260.6543479 2351.05052 -0.8259065345 -0.3561678593 -0.4370616115
263.8759008 269.2794786 2358.789398 -0.8259065345 -0.3561678593 -0.4370616115
355.0824576 116.5075174 2241.468995 -0.8960349325 -0.1948207028 -0.3989565058
361.1104592 107.4651662 2233.258767 -0.8960349325 -0.1948207028 -0.3989565058
-154.639449 -244.0425164 1858.001307 -0.1885062591 0.8003762011 0.5690899111
-161.3061677 -244.4711652 1856.980815 -0.1885062591 0.8003762011 0.5690899111
-228.91227 -236.4619993 1841.488424 0.07541866812 0.7628029749 0.6422177559
-228.0898145 -236.4706755 1841.5547 0.07541866812 0.7628029749 0.6422177559
-211.0680277 -241.274501 1846.577495 -0.009690265825 0.7868221023 0.6171037822
-197.0693664 -241.7603454 1847.378041 -0.009690265825 0.7868221023 0.6171037822
378.1530532 78.99400884 2200.014273 -0.9545049167 -0.1034429087 -0.2796782592
379.2705543 76.61517341 2197.811825 -0.9545049167 -0.1034429087 -0.2796782592
-540.6731437 71.88318054 2104.242019 0.9997841686 -0.00531845599 0.0200830854
-540.609282 54.19677035 2087.118417 0.9997841686 -0.00531845599 0.0200830854
-540.5877062 48.04626407 2091.265336 0.9996762893 0.02543407539 -0.0006515089511
-540.5956587 47.7898427 2091.016268 0.9996762893 0.02543407539 -0.0006515089511
-539.7842516 30.71195214 2069.154326 0.9990674946 0.03018419742 0.03087159692
-540.4303411 45.84286128 2083.750043 0.9990674946 0.03018419742 0.03087159692
-540.355268 42.15598209 2090.372916 0.9986429093 0.05206863268 0.001094146885
-540.345424 41.46597423 2089.705533 0.9986429093 0.05206863268 0.001094146885
-540.4104218 42.92464795 2091.827563 0.9987501051 0.04976004915 -0.004707983666
-540.3767071 42.61769879 2091.533342 0.9987501051 0.04976004915 -0.004707983666
-513.0946648 184.4642201 2174.745616 0.90163299 -0.3995849457 -0.1654987084
-504.7747143 199.0033286 2189.582293 0.90163299 -0.3995849457 -0.1654987084
-494.3606178 223.4322849 2172.028144 0.8495625078 -0.5217297274 -0.07772796676
-494.2875574 223.5243672 2172.123961 0.8495625078 -0.5217297274 -0.07772796676
-500.5832305 197.3224117 2211.460179 0.9229263812 -0.3247631997 -0.2067262901
-508.8373827 184.3663638 2198.162681 0.9229263812 -0.3247631997 -0.2067262901
-494.7514309 222.5969325 2173.206731 0.8518818751 -0.5170925535 -0.08314181877
-494.6284814 222.8322346 2173.445787 0.8518818751 -0.5170925535 -0.08314181877
-535.6809946 -11.99156896 2026.126088 0.9850846551 0.1181953921 0.1250522754
-537.2558256 -32.5416352 2006.080222 0.9850846551 0.1181953921 0.1250522754
281.3453233 228.4667595 2350.516728 -0.877909073 -0.1973197197 -0.4362804003
281.210126 228.6736732 2350.704849 -0.877909073 -0.1973197197 -0.4362804003
307.4492888 189.4722966 2308.932333 -0.8919878749 -0.197391468 -0.4066869058
307.3394826 189.6587064 2309.102902 -0.8919878749 -0.197391468 -0.4066869058
270.6922023 260.3088103 2351.197437 -0.8256956566 -0.3550620936 -0.438357836
270.7349639 260.2647323 2351.15863 -0.8256956566 -0.3550620936 -0.438357836
377.8030738 -15.28375228 2117.635363 -0.9471967254 0.3111041972 0.07766944004
376.68552 -18.55339055 2114.367223 -0.9471967254 0.3111041972 0.07766944004
383.6711964 4.262325762 2127.350506 -0.9765373387 0.213373807 0.02909372244
385.2741394 7.652270262 2130.779238 -0.9765373387 0.213373807 0.02909372244
387.1288475 20.87640709 2152.714344 -0.9858108795 0.1472531229 -0.08058180753
387.2509811 21.0767165 2152.919434 -0.9858108795 0.1472531229 -0.08058180753
387.3635754 43.65402048 2168.981054 -0.9863738513 0.03436660298 -0.1608899067
386.8815962 45.00467904 2170.245412 -0.9863738513 0.03436660298 -0.1608899067
385.5585112 57.0038783 2175.273199 -0.9859447012 -0.005386433133 -0.1669851267
386.7957661 52.95528627 2171.464456 -0.9859447012 -0.005386433133 -0.1669851267
273.3866604 -109.2999843 2014.621856 -0.5244165206 0.6914768691 0.4968370483
282.2500175 -105.8268728 2018.790386 -0.5244165206 0.6914768691 0.4968370483
371.6556769 -26.04990892 2096.246607 -0.9220475098 0.3485867891 0.1682725172
369.2301586 -30.72904489 2091.494595 -0.9220475098 0.3485867891 0.1682725172
-540.6290724 71.89484028 2102.450792 0.999563812 -0.005376754662 0.02903921792
-541.2895197 82.11914451 2112.293127 0.999563812 -0.005376754662 0.02903921792
-539.944391 101.3483611 2105.506552 0.9928381686 -0.1015228375 0.06297209185
-539.943181 102.2548785 2106.38463 0.9928381686 -0.1015228375 0.06297209185
-541.7076313 93.60726263 2129.067976 0.9997496151 -0.01870355302 -0.01228349471
-541.4481261 86.63026195 2122.33427 0.9997496151 -0.01870355302 -0.01228349471
-540.1762965 100.570393 2107.509321 0.9940037463 -0.0931004098 0.05734863627
-540.2989523 101.5096333 2108.407844 0.9940037463 -0.0931004098 0.05734863627
-296.2451622 -210.7196477 1837.784071 0.3317196005 0.657700269 0.6763079645
-302.4096978 -209.2198998 1838.676842 0.3317196005 0.657700269 0.6763079645
-370.6158804 296.4100193 2329.326598 0.5734124785 -0.6011380753 -0.5566247783
-374.9263854 294.4976403 2327.08305 0.5734124785 -0.6011380753 -0.5566247783
-392.811104 286.6655288 2315.943244 0.6330531747 -0.5759816795 -0.5171931775
-386.8545247 289.4663611 2319.19673 0.6330531747 -0.5759816795 -0.5171931775
-537.6295196 23.71140095 2053.438405 0.9992698529 -0.01110686748 0.03655678445
-538.5180342 13.86888297 2043.825186 0.9992698529 -0.01110686748 0.03655678445
17.90580609 355.2055945 2409.498604 -0.1341188209 -0.722538416 -0.6781964164
17.37902283 355.2772538 2409.520174 -0.1341188209 -0.722538416 -0.6781964164
-20.48370748 360.481343 2412.218276 -0.1279354728 -0.7207029902 -0.6813367117
15.47736384 355.011895 2410.186374 -0.1279354728 -0.7207029902 -0.6813367117
14.39544304 359.8152395 2405.125733 -0.1225258688 -0.7447197124 -0.6560335063
15.06043241 359.7135131 2405.087592 -0.1225258688 -0.7447197124 -0.6560335063
308.9638444 187.3596731 2306.528539 -0.9010567964 -0.184466234 -0.3925160609
308.5504547 188.1373501 2307.244188 -0.9010567964 -0.184466234 -0.3925160609
349.8955564 115.8579665 2252.836746 -0.8826634822 -0.1715763143 -0.4375691324
345.2896385 122.7317524 2259.075831 -0.8826634822 -0.1715763143 -0.4375691324
339.3294972 125.0330338 2269.236029 -0.8898413956 -0.1276572171 -0.4380478577
337.5697163 127.7768056 2271.7336 -0.8898413956 -0.1276572171 -0.4380478577
340.088584 114.4039718 2270.138873 -0.8936368299 -0.07451190717 -0.4425620768
340.0913231 114.3101078 2270.048214 -0.8936368299 -0.07451190717 -0.4425620768
373.8601775 88.35108242 2209.459602 -0.9330405384 -0.1502282765 -0.3269049076
371.8973241 93.24889432 2214.024936 -0.9330405384 -0.1502282765 -0.3269049076
364.0233273 105.8563989 2227.203039 -0.910599273 -0.1867768663 -0.3686778625
367.409071 100.5586123 2222.379527 -0.910599273 -0.1867768663 -0.3686778625
273.8725843 -109.0213058 2014.875409 -0.4825293548 0.707449034 0.5164119345
274.4700219 -109.3317848 2014.628956 -0.4825293548 0.707449034 0.5164119345
289.687027 -105.4739934 2025.614648 -0.5564959276 0.6897449287 0.4632107683
289.2633365 -105.7909638 2025.269189 -0.5564959276 0.6897449287 0.4632107683
-98.46651043 349.2305484 2439.713454 -0.02890311774 -0.609645353 -0.7921471791
-101.2336407 349.5394782 2439.761397 -0.02890311774 -0.609645353 -0.7921471791
-111.8680245 355.9986688 2434.605884 0.02426880104 -0.6419413061 -0.7663696137
-116.1582905 356.74023 2434.934531 0.02426880104 -0.6419413061 -0.7663696137
-60.7385282 361.2507607 2423.738367 -0.1719475762 -0.6772393672 -0.7153886151
-65.84866997 362.9124137 2424.883684 -0.1719475762 -0.6772393672 -0.7153886151
-92.65659178 366.3701436 2426.073294 -0.04984928437 -0.6921045689 -0.7200738258
-91.98973109 366.3384955 2426.103194 -0.04984928437 -0.6921045689 -0.7200738258
-97.16444891 352.2704032 2438.62932 -0.02730999868 -0.621605867 -0.7828539519
-98.78513424 351.6226512 2437.854808 -0.02730999868 -0.621605867 -0.7828539519
-84.49703453 352.977129 2436.721442 -0.07870575338 -0.6275629435 -0.774577405
-86.21843729 353.4301704 2437.00391 -0.07870575338 -0.6275629435 -0.774577405
22.27206049 378.0927421 2372.857872 0.1664328506 -0.8579468075 -0.4860322846
25.19613258 378.7045434 2373.715913 0.1664328506 -0.8579468075 -0.4860322846
21.21334135 381.645398 2364.959447 0.1307971182 -0.8807580085 -0.45514552
29.39920697 382.6549823 2366.680519 0.1307971182 -0.8807580085 -0.45514552
26.18520014 371.0165215 2387.075665 0.1931568615 -0.8152962863 -0.5458776351
24.30561639 370.8818537 2386.774571 0.1931568615 -0.8152962863 -0.5458776351
15.14765191 376.5775497 2373.486666 0.216675254 -0.8473118389 -0.4848860506
19.60193789 377.2849642 2374.576254 0.216675254 -0.8473118389 -0.4848860506
32.43072573 354.8058175 2407.210396 -0.08913166592 -0.7360187035 -0.6710678164
10.99373532 357.6271887 2407.996417 -0.08913166592 -0.7360187035 -0.6710678164
15.68587481 359.9022547 2404.751319 -0.1230191645 -0.7460217169 -0.6544599934
17.77123504 359.6277914 2404.674852 -0.1230191645 -0.7460217169 -0.6544599934
202.0911758 -133.3095682 1983.731566 -0.4492580095 0.71647813 0.5336912311
154.1571144 -147.5623239 1965.575232 -0.4492580095 0.71647813 0.5336912311
259.4328856 -118.4460673 2015.140673 -0.5156815896 0.7169574821 0.4690889755
271.3055942 -114.5347476 2020.006862 -0.5156815896 0.7169574821 0.4690889755
276.497278 -99.83072359 2005.6327 -0.539969609 0.6441305655 0.541782831
276.1631981 -99.96936428 2005.46809 -0.539969609 0.6441305655 0.541782831
255.3257409 -120.9357009 2013.45533 -0.5242973246 0.7156209386 0.4615181337
261.1560326 -118.1787585 2016.654841 -0.5242973246 0.7156209386 0.4615181337
319.2927998 -80.28517596 2032.053918 -0.7045247912 0.5638008416 0.4310144193
320.1435133 -79.21520906 2033.167433 -0.7045247912 0.5638008416 0.4310144193
320.7465069 -79.98276631 2035.186262 -0.7075397589 0.5676386278 0.4209202748
323.1455562 -78.59273538 2036.750352 -0.7075397589 0.5676386278 0.4209202748
350.7388018 -46.45123193 2052.162276 -0.8339679453 0.4201593668 0.3577199641
348.4311935 -49.09688319 2049.390414 -0.8339679453 0.4201593668 0.3577199641
-526.2133638 169.7295114 2147.243525 0.9246488519 -0.3728833 -0.07734691539
-525.6341102 170.6051618 2148.144194 0.9246488519 -0.3728833 -0.07734691539
-521.0748967 170.6365708 2171.584462 0.9184278479 -0.3546570468 -0.1752388863
-524.3899094 166.9599112 2167.722589 0.9184278479 -0.3546570468 -0.1752388863
-537.4815096 132.804844 2136.89416 0.979839354 -0.1968658446 -0.03403938256
-537.2514642 134.5260204 2138.582018 0.979839354 -0.1968658446 -0.03403938256
-540.1173429 108.3364482 2144.283806 0.9917981735 -0.09234948092 -0.08836264196
-539.8732735 111.9015712 2147.758811 0.9917981735 -0.09234948092 -0.08836264196
355.1869018 -60.11598911 2091.44289 -0.8544322729 0.4925325532 0.1654000458
355.7071112 -59.51819771 2092.06909 -0.8544322729 0.4925325532 0.1654000458
354.2309455 -63.35167621 2096.735294 -0.849652491 0.5087109887 0.1389380238
354.2956466 -63.58348646 2096.516659 -0.849652491 0.5087109887 0.1389380238
358.0208648 -49.91188944 2078.509761 -0.8703782604 0.4374626544 0.2259825431
358.4408005 -49.3338196 2079.107755 -0.8703782604 0.4374626544 0.2259825431
-298.7200496 315.8203731 2373.803855 0.4963722403 -0.5837525507 -0.642532146
-293.8459143 317.350479 2375.728347 0.4963722403 -0.5837525507 -0.642532146
-305.0395178 321.9614099 2363.0798 0.492589763 -0.6266212889 -0.6039048648
-297.9635542 324.3941207 2366.078399 0.492589763 -0.6266212889 -0.6039048648
-107.6563223 373.2925304 2419.424624 -0.01824103955 -0.7247028082 -0.6888200812
-113.8140906 373.9339944 2419.486756 -0.01824103955 -0.7247028082 -0.6888200812
-115.9341405 379.4520334 2413.479615 -0.007640790049 -0.7522930035 -0.6587843769
-117.9150023 379.5266147 2413.371984 -0.007640790049 -0.7522930035 -0.6587843769
-338.3495866 314.9760109 2340.600953 0.5196129575 -0.6471327812 -0.5578723311
-346.4353009 312.1001742 2337.081498 0.5196129575 -0.6471327812 -0.5578723311
-359.9711473 307.0867722 2329.138788 0.5656861223 -0.631977571 -0.5297202666
-355.6499338 309.0691322 2331.451085 0.5656861223 -0.631977571 -0.5297202666
-365.6437858 302.4304627 2327.660457 0.5485520056 -0.6312402923 -0.548294073
-356.544324 306.9393165 2332.853549 0.5485520056 -0.6312402923 -0.548294073
-130.7251091 374.45582 2418.491343 0.05640974411 -0.7269390302 -0.6843811709
-136.8299399 374.8755185 2418.3435 0.05640974411 -0.7269390302 -0.6843811709
-469.0347587 -126.4815126 1937.768062 0.7390016889 0.52854115 0.4177568151
-478.6092874 -118.4055529 1944.720306 0.7390016889 0.52854115 0.4177568151
-442.864941 -126.1149911 1906.742509 0.5424909512 0.5743409186 0.6130547098
-439.3071398 -127.5655066 1905.660727 0.5424909512 0.5743409186 0.6130547098
-430.1948296 -161.1626663 1918.040893 0.6941053382 0.5861951968 0.4178432371
-424.3336975 -165.7610168 1914.119556 0.6941053382 0.5861951968 0.4178432371
-42.1467842 365.2527346 2414.244902 -0.2008379723 -0.7102483465 -0.6746935565
-34.48919218 363.40678 2413.152398 -0.2008379723 -0.7102483465 -0.6746935565
-11.69509129 352.9565783 2417.813747 -0.1870111506 -0.6806512058 -0.7083366189
-37.25455653 357.4873518 2419.881011 -0.1870111506 -0.6806512058 -0.7083366189
-60.38111042 352.5551155 2431.41383 -0.1737346651 -0.6337611412 -0.7537659332
-47.56744566 349.9552935 2430.059377 -0.1737346651 -0.6337611412 -0.7537659332
190.6983593 354.8611982 2361.714301 -0.5111462137 -0.7487164045 -0.4220820938
190.1846404 355.040993 2361.841787 -0.5111462137 -0.7487164045 -0.4220820938
223.0594984 314.6098756 2376.657993 -0.6649610365 -0.553276749 -0.5017087393
221.4613239 315.7732671 2377.63963 -0.6649610365 -0.553276749 -0.5017087393
229.5777144 321.4839109 2359.477151 -0.6636849956 -0.6093872371 -0.4337849951
222.8042902 325.8319732 2363.073244 -0.6636849956 -0.6093872371 -0.4337849951
149.0651586 382.0796634 2348.233128 -0.3055488047 -0.8839097564 -0.3540387979
148.1778094 382.2684433 2348.33539 -0.3055488047 -0.8839097564 -0.3540387979
134.9984202 375.1813841 2373.542101 -0.276681803 -0.8369190632 -0.4722432228
142.4044091 372.8703047 2371.976275 -0.276681803 -0.8369190632 -0.4722432228
37.57106514 383.305598 2364.962699 0.04900849925 -0.8890590081 -0.4551617812
25.49532901 383.5229181 2364.076689 0.04900849925 -0.8890590081 -0.4551617812
26.99507093 377.5301579 2377.93018 -0.02002890235 -0.8520051136 -0.5231501978
39.30280934 376.1121392 2377.674372 -0.02002890235 -0.8520051136 -0.5231501978
25.37196229 368.4074039 2391.427007 -0.05383784872 -0.8040266353 -0.5921508724
33.7568602 367.9344623 2391.730315 -0.05383784872 -0.8040266353 -0.5921508724
249.6677223 296.014833 2358.448398 -0.7641350351 -0.4820418476 -0.4286412314
251.5216009 294.4542762 2357.105322 -0.7641350351 -0.4820418476 -0.4286412314
322.1621549 167.1790797 2290.100238 -0.903501273 -0.1736333346 -0.3918378679
320.5685057 170.0176157 2292.704674 -0.903501273 -0.1736333346 -0.3918378679
319.214278 176.2471723 2292.928584 -0.8996255701 -0.1997151538 -0.3883139078
311.1077215 187.0316248 2302.637313 -0.8996255701 -0.1997151538 -0.3883139078
355.5148411 115.9994442 2240.739869 -0.8981968502 -0.192280337 -0.3953108781
354.7015685 117.3741888 2241.997472 -0.8981968502 -0.192280337 -0.3953108781
351.0949801 116.6113075 2250.066571 -0.8886606006 -0.1753430193 -0.4237182584
352.7943186 113.9867253 2247.678948 -0.8886606006 -0.1753430193 -0.4237182584
80.70285642 373.5311889 2390.79602 -0.01920353136 -0.8285157228 -0.559636419
74.69536734 374.1091254 2390.81027 -0.01920353136 -0.8285157228 -0.559636419
41.54829111 373.0146822 2388.419982 0.1163414067 -0.8252870896 -0.552599219
47.58637974 373.4633988 2389.40283 0.1163414067 -0.8252870896 -0.552599219
-323.7094401 -208.1337804 1850.243813 0.4382183118 0.6522696719 0.6184731088
-334.246857 -203.5853295 1853.692211 0.4382183118 0.6522696719 0.6184731088
-355.4698235 -194.5890171 1861.076479 0.5169681078 0.619419299 0.5908161368
-349.9968162 -197.0152549 1859.223606 0.5169681078 0.619419299 0.5908161368
-420.5796455 -164.6441948 1906.734744 0.6753350781 0.580611087 0.454767301
-409.5405424 -172.7338127 1899.902256 0.6753350781 0.580611087 0.454767301
-394.9668701 -176.5493741 1884.541247 0.6448262616 0.5712194895 0.5078458302
-403.4387791 -170.8554932 1889.28655 0.6448262616 0.5712194895 0.5078458302
-461.260561 -137.5392507 1939.110005 0.7001307004 0.5838298409 0.4110471009
-440.0828742 -153.8746343 1925.212032 0.7001307004 0.5838298409 0.4110471009
-23.28854597 -206.05286 1920.891143 -0.4952900298 0.7562034131 0.4276028349
-18.15079974 -204.0924569 1923.256317 -0.4952900298 0.7562034131 0.4276028349
307.0764936 190.273753 2309.363662 -0.8916200423 -0.1990366333 -0.4066916753
307.2659161 189.9877394 2309.103856 -0.8916200423 -0.1990366333 -0.4066916753
339.5425052 117.8676371 2270.48318 -0.8908927404 -0.09229955338 -0.4447369082
340.5841499 116.2312083 2268.99287 -0.8908927404 -0.09229955338 -0.4447369082
200.8900357 -151.4015112 2012.384187 -0.4193421257 0.8148341408 0.4002468047
202.3178723 -150.90944 2012.99041 -0.4193421257 0.8148341408 0.4002468047
282.1617376 225.9105876 2349.987121 -0.8819911445 -0.18453886 -0.4336323674
290.3276846 213.2180376 2338.43578 -0.8819911445 -0.18453886 -0.4336323674
329.9374697 150.8287447 2279.43421 -0.9023152761 -0.1595910932 -0.4004470321
327.2954047 155.2331254 2283.45998 -0.9023152761 -0.1595910932 -0.4004470321
324.3797175 157.355077 2289.092577 -0.898213678 -0.1523798364 -0.4123015574
326.4750851 153.790874 2285.830885 -0.898213678 -0.1523798364 -0.4123015574
320.9811295 174.9202893 2289.354703 -0.9055643918 -0.1981467026 -0.3750880116
320.4020423 175.9334821 2290.283405 -0.9055643918 -0.1981467026 -0.3750880116
338.1286686 129.7932294 2269.967739 -0.8926361575 -0.1377393361 -0.4292185522
333.9268636 136.6246501 2276.202486 -0.8926361575 -0.1377393361 -0.4292185522
269.5341197 262.7829289 2351.381015 -0.8203534683 -0.3668107646 -0.4387140868
269.6237647 262.6585445 2351.268687 -0.8203534683 -0.3668107646 -0.4387140868
-214.8072903 183.8400119 2068.396611 0.2392229113 0.1397552458 0.9608542397
-213.6083953 183.8688537 2068.533405 0.2392229113 0.1397552458 0.9608542397
-280.8296125 190.6418845 2098.496505 0.5753289977 0.105890092 0.8110387369
-280.3124779 190.6534305 2098.554644 0.5753289977 0.105890092 0.8110387369
-310.2296874 339.6888786 2332.529896 0.5782911056 -0.6954445486 -0.4265398892
-290.6028959 347.7559929 2342.125075 0.5782911056 -0.6954445486 -0.4265398892
-341.9309505 305.0455131 2270.44775 0.8834213611 -0.466070321 -0.04842679559
-351.628947 301.8811474 2266.502457 0.8834213611 -0.466070321 -0.04842679559
-73.72211763 -240.1060371 1916.284947 -0.4960879865 0.8093978427 0.3142798783
-78.87807065 -242.5566406 1913.443357 -0.4960879865 0.8093978427 0.3142798783
185.2136698 -158.9698883 2013.716323 -0.3338211133 0.8551363821 0.3966172365
185.7179649 -158.7974491 2013.929122 -0.3338211133 0.8551363821 0.3966172365
172.9637511 -163.4588964 2014.407973 -0.2700512829 0.8784426045 0.3942218857
172.9639988 -163.4586936 2014.408192 -0.2700512829 0.8784426045 0.3942218857
200.2202015 -151.2526535 2011.388481 -0.4159929551 0.8140898525 0.4052253364
198.4582497 -151.8496844 2010.650266 -0.4159929551 0.8140898525 0.4052253364
195.1630859 -150.6699182 2004.951694 -0.4146175604 0.8032798795 0.4275905913
198.1831707 -149.6876898 2006.177215 -0.4146175604 0.8032798795 0.4275905913
277.5614515 243.5416416 2349.976917 -0.8598280945 -0.27144664 -0.4324492683
277.5939302 243.4990572 2349.938623 -0.8598280945 -0.27144664 -0.4324492683
308.5510889 189.8206633 2306.295724 -0.8974968755 -0.1991333014 -0.3935038585
310.6819826 186.9152543 2303.675303 -0.8974968755 -0.1991333014 -0.3935038585
333.7871379 140.4131185 2275.187614 -0.8919375289 -0.1566816783 -0.4241441926
329.7268769 147.0246643 2281.222263 -0.8919375289 -0.1566816783 -0.4241441926
331.2355015 147.8101747 2277.668078 -0.8994806522 -0.16060923 -0.4063732664
329.3705449 151.0323721 2280.619457 -0.8994806522 -0.16060923 -0.4063732664
320.9159881 164.8984873 2293.851375 -0.897270439 -0.1622303728 -0.4105935525
324.1910698 159.3251843 2288.750976 -0.897270439 -0.1622303728 -0.4105935525
-152.1424348 171.8468739 2064.671743 -0.1663679026 0.1950528149 0.9665795986
-152.6425039 171.8099067 2064.590534 -0.1663679026 0.1950528149 0.9665795986
-118.4269601 -252.3416062 1891.229804 -0.3345186575 0.8476773357 0.4117528413
-115.9117516 -251.7215773 1892.058689 -0.3345186575 0.8476773357 0.4117528413
-93.50043755 -248.8971397 1908.877854 -0.422976152 0.8411003384 0.3371073947
-98.22025272 -250.4061778 1906.987778 -0.422976152 0.8411003384 0.3371073947
-134.7707099 -249.453086 1875.382041 -0.2878499542 0.827429049 0.4821862427
-127.7607008 -248.2919488 1877.143124 -0.2878499542 0.827429049 0.4821862427
292.0904619 210.4610893 2335.925559 -0.890805031 -0.1707541183 -0.4210812603
294.7200226 206.020607 2331.86369 -0.890805031 -0.1707541183 -0.4210812603
-127.325509 110.8196605 2093.321768 -0.3930402903 0.4735449969 0.7882096587
-121.3900573 112.4412206 2095.431202 -0.3930402903 0.4735449969 0.7882096587
-129.9921772 134.4162427 2081.739173 -0.2796195363 0.3820211348 0.8808364022
-131.4119132 134.0727026 2081.277539 -0.2796195363 0.3820211348 0.8808364022
-118.7878197 120.1625002 2092.532945 -0.375453862 0.4435482662 0.8138177518
-112.2450481 121.7672763 2094.681269 -0.375453862 0.4435482662 0.8138177518
-118.9877151 117.1811407 2093.878662 -0.4050520014 0.449845396 0.7959723587
-112.8681918 118.9030742 2096.102023 -0.4050520014 0.449845396 0.7959723587
339.5735532 130.4016648 2266.935533 -0.8815741972 -0.1697607228 -0.4404636555
341.6206267 127.5437611 2264.353511 -0.8815741972 -0.1697607228 -0.4404636555
339.2943438 129.1732309 2267.933437 -0.8844437102 -0.1570096662 -0.4394397436
340.1474558 127.8514535 2266.730751 -0.8844437102 -0.1570096662 -0.4394397436
345.1508858 122.2735531 2259.532885 -0.8819697189 -0.169285318 -0.4398544033
341.699731 127.4486801 2264.231661 -0.8819697189 -0.169285318 -0.4398544033
-34.41167045 -212.7521436 1917.575434 -0.5433457437 0.7434398504 0.3899648596
-24.71906557 -208.0305631 1923.028411 -0.5433457437 0.7434398504 0.3899648596
107.8238621 -161.5930559 1947.54244 -0.3849866282 0.7347925275 0.5584489571
113.7995791 -160.1367678 1949.495464 -0.3849866282 0.7347925275 0.5584489571
-145.0462177 153.8464699 2070.584277 -0.201848988 0.2850548354 0.9370169299
-137.5465417 155.3812162 2072.751665 -0.201848988 0.2850548354 0.9370169299
-210.8566318 259.5748775 2069.4506 0.1920155989 -0.2406301692 0.9514342497
-216.3194591 260.5182171 2069.868201 0.1920155989 -0.2406301692 0.9514342497
-205.6250849 184.3894551 2066.262614 0.1933118847 0.1370080298 0.9715242226
-211.1158889 184.0472377 2065.432605 0.1933118847 0.1370080298 0.9715242226
-22.53913057 -200.2820315 1912.330154 -0.4733483757 0.7371512858 0.482233654
-9.252998944 -195.7113299 1917.963298 -0.4733483757 0.7371512858 0.482233654
-9.766905893 -192.6710816 1912.989042 -0.4707788409 0.7219500446 0.507104936
-9.539404267 -192.5882865 1913.089887 -0.4707788409 0.7219500446 0.507104936
-13.36505362 -190.2866841 1906.568972 -0.4512678072 0.7105659326 0.5398642623
-13.441611 -190.3114641 1906.538021 -0.4512678072 0.7105659326 0.5398642623
-19.20014335 -191.347655 1903.296275 -0.4213754432 0.7160740086 0.5564896676
-19.34352643 -191.3882993 1903.243891 -0.4213754432 0.7160740086 0.5564896676
-6.688215667 -195.1391189 1918.373792 -0.4053653616 0.7582089569 0.5106839543
-22.40215967 -199.7746447 1912.457417 -0.4053653616 0.7582089569 0.5106839543
-35.52706362 -217.9066947 1926.541829 -0.5377687779 0.7692126059 0.3451328853
-45.20508811 -222.4387238 1921.273758 -0.5377687779 0.7692126059 0.3451328853
-18.38437467 -203.5720687 1922.373859 -0.5198108863 0.7437994566 0.420189256
-29.42603706 -208.1024843 1916.983531 -0.5198108863 0.7437994566 0.420189256
-53.02787526 -226.9925301 1917.921313 -0.5616298059 0.7605649813 0.325749705
-47.44262347 -224.1738168 1921.158399 -0.5616298059 0.7605649813 0.325749705
120.6550467 -157.2881964 1950.326331 -0.387216892 0.7285916262 0.5649932042
114.2456319 -158.8965875 1948.186614 -0.387216892 0.7285916262 0.5649932042
87.50125218 -161.4069733 1933.681809 -0.3663465949 0.7119968492 0.5990414502
98.25234137 -158.5940173 1937.382382 -0.3663465949 0.7119968492 0.5990414502
163.3332663 -137.0228355 1960.200536 -0.495138769 0.6637806877 0.5605647135
158.5255705 -139.6349412 1957.234153 -0.495138769 0.6637806877 0.5605647135
-138.7617052 112.0691794 2087.172136 -0.3516948463 0.4631561676 0.8135091268
-137.2321482 112.4730779 2087.702199 -0.3516948463 0.4631561676 0.8135091268
-127.3173583 109.1891501 2094.316993 -0.3930810436 0.4816975487 0.7832335314
-128.9549087 108.7648017 2093.757318 -0.3930810436 0.4816975487 0.7832335314
-436.8380069 -159.9232492 1928.634007 0.6839063639 0.6140729155 0.3939372284
-428.1550348 -166.7382101 1922.822094 0.6839063639 0.6140729155 0.3939372284
-376.8147454 -186.8804615 1874.7434 0.5995794484 0.5956087507 0.5345602877
-371.9920916 -189.8269074 1872.327649 0.5995794484 0.5956087507 0.5345602877
122.0036795 -153.0402005 1945.946963 -0.3890299737 0.7086603973 0.5886052335
130.2885182 -150.6609479 1949.003554 -0.3890299737 0.7086603973 0.5886052335
144.0221731 -145.6758616 1952.529526 -0.4328920663 0.6903680512 0.5796519756
139.0609367 -147.0024787 1950.794205 -0.4328920663 0.6903680512 0.5796519756
-39.98674839 -218.1341918 1920.151605 -0.5638604765 0.7476899462 0.3507436492
-46.99648936 -221.5988098 1916.159611 -0.5638604765 0.7476899462 0.3507436492
-10.49052581 -195.7640709 1916.375727 -0.3863538109 0.7613337171 0.5206742783
-3.475951078 -194.1179828 1918.606903 -0.3863538109 0.7613337171 0.5206742783
295.3934894 201.6459301 2332.096312 -0.8941723651 -0.1488807336 -0.4222443707
298.1313674 196.898537 2327.747033 -0.8941723651 -0.1488807336 -0.4222443707
303.5000505 191.8681053 2318.086291 -0.899801926 -0.1590880961 -0.4062603495
299.2572796 198.9400095 2324.550229 -0.899801926 -0.1590880961 -0.4062603495
308.4186516 183.3324129 2309.621714 -0.9003977812 -0.160441548 -0.4044036909
303.6192215 192.1387957 2317.71496 -0.9003977812 -0.160441548 -0.4044036909
122.4524784 -145.9968734 1938.228274 -0.3912739686 0.6734437618 0.6271986776
121.466462 -146.2586235 1937.885236 -0.3912739686 0.6734437618 0.6271986776
106.7529544 -155.5733742 1939.351344 -0.3796320894 0.7046941191 0.5994044337
100.9094403 -157.1334712 1937.309785 -0.3796320894 0.7046941191 0.5994044337
-69.19002437 -237.9320094 1918.066035 -0.5187484528 0.7985277042 0.3053744395
-61.60414587 -234.5850747 1921.996366 -0.5187484528 0.7985277042 0.3053744395
154.0073852 -155.4818558 1974.557463 -0.4725478426 0.7430152605 0.4739481608
153.5508606 -155.7557381 1974.250754 -0.4725478426 0.7430152605 0.4739481608
148.151799 -157.0036552 1971.242268 -0.4535401959 0.7470070188 0.4860882683
149.7493313 -156.5540897 1971.822732 -0.4535401959 0.7470070188 0.4860882683
-387.5982772 -178.3248828 1877.695701 0.6079832973 0.580097033 0.5420735582
-378.4955152 -183.7781179 1873.240746 0.6079832973 0.580097033 0.5420735582
54.00967567 -171.1941266 1926.890425 -0.352408396 0.7284100328 0.5875603344
63.20158803 -168.976393 1929.872947 -0.352408396 0.7284100328 0.5875603344
27.85708486 -173.0218439 1913.253107 -0.4046816488 0.6933108365 0.5962825229
29.38304977 -172.5661345 1913.833023 -0.4046816488 0.6933108365 0.5962825229
53.28462244 -161.4249871 1915.398807 -0.3800838871 0.672356387 0.6351953461
50.72149264 -162.1295292 1914.48372 -0.3800838871 0.672356387 0.6351953461
78.99733466 -152.5027161 1919.649437 -0.3518217794 0.6622236471 0.6615748459
72.70427035 -153.9242785 1917.70123 -0.3518217794 0.6622236471 0.6615748459
72.52856751 -165.2125013 1929.95625 -0.3509432652 0.7186647611 0.6002997466
62.90856186 -167.0273386 1927.325065 -0.3509432652 0.7186647611 0.6002997466
6.777797485 -188.5585569 1918.592898 -0.4046890225 0.7430775545 0.5329751805
13.5586782 -186.3868071 1921.31196 -0.4046890225 0.7430775545 0.5329751805
35.89171962 -182.6626755 1929.926004 -0.3489348528 0.7637131819 0.5431267295
31.66316931 -183.6186823 1928.61615 -0.3489348528 0.7637131819 0.5431267295
57.62678545 -161.0757497 1917.391186 -0.3704939449 0.6778181484 0.6350565286
51.36663402 -162.5173394 1915.426571 -0.3704939449 0.6778181484 0.6350565286
84.78387038 -151.5967918 1921.419923 -0.3527596859 0.6629459414 0.6603508786
79.18491597 -152.6471749 1919.894231 -0.3527596859 0.6629459414 0.6603508786
-3.203016563 -198.0910307 1924.884195 -0.3877184835 0.7811989568 0.4892878166
3.383689685 -196.1828373 1927.33037 -0.3877184835 0.7811989568 0.4892878166
12.03843715 -186.9848618 1921.004412 -0.3970878172 0.7460678282 0.5345129195
26.33831855 -183.5732423 1925.607028 -0.3970878172 0.7460678282 0.5345129195
47.91874122 -168.4589083 1919.806391 -0.3660701299 0.7040032827 0.6085819895
39.31877505 -170.7206957 1916.834952 -0.3660701299 0.7040032827 0.6085819895
32.24598929 -184.1350009 1929.725054 -0.3518489527 0.7662947749 0.5375822099
25.01999216 -185.8529181 1927.405114 -0.3518489527 0.7662947749 0.5375822099
23.53942297 -174.1595585 1911.889466 -0.3754635148 0.7012779566 0.6060003108
29.74290457 -172.8495544 1913.721494 -0.3754635148 0.7012779566 0.6060003108
-248.2049877 337.7422866 2401.93643 0.4363693198 -0.597430592 -0.6727990075
-245.8588922 338.426172 2402.811804 0.4363693198 -0.597430592 -0.6727990075
-215.5691488 328.9959452 2431.841995 0.392840592 -0.5076050482 -0.7668203077
-219.6036177 327.8657086 2430.381021 0.392840592 -0.5076050482 -0.7668203077
-242.8075295 318.3880906 2418.980765 0.3368749091 -0.5209770609 -0.7842819631
-239.3369317 319.1385135 2420.022687 0.3368749091 -0.5209770609 -0.7842819631
-300.7128263 304.2295722 2397.187097 0.4580607589 -0.4976457964 -0.7365656811
-292.0005599 306.7162221 2400.386514 0.4580607589 -0.4976457964 -0.7365656811
-282.1431142 305.2918376 2406.988712 0.431894993 -0.483937753 -0.761098526
-286.7674067 303.9746134 2405.293083 0.431894993 -0.483937753 -0.761098526
-240.16324 334.6928399 2409.471531 0.4541161666 -0.5651724698 -0.6887369502
-231.8587327 339.3791929 2414.76435 0.4541161666 -0.5651724698 -0.6887369502
-257.6483817 306.0819118 2419.10458 0.3516982283 -0.4758296262 -0.8061603581
-245.7721933 309.3586037 2423.356444 0.3516982283 -0.4758296262 -0.8061603581
-158.3163491 351.4757345 2436.532275 0.1638417904 -0.6099401102 -0.7753250477
-160.2207366 351.2483538 2436.139136 0.1638417904 -0.6099401102 -0.7753250477
-194.3277586 345.1097224 2429.725093 0.2866336413 -0.5881739345 -0.7562357955
-184.7791068 346.8951187 2432.321285 0.2866336413 -0.5881739345 -0.7562357955
-271.7366861 310.0661178 2409.665699 0.4221397504 -0.4957506566 -0.7589659529
-278.0229538 308.281325 2407.366318 0.4221397504 -0.4957506566 -0.7589659529
-242.4417084 333.2993017 2409.086327 0.4655085088 -0.5582047785 -0.6868109299
-251.68673 330.5810093 2405.614189 0.4655085088 -0.5582047785 -0.6868109299
-253.906111 327.565144 2406.698277 0.4097208055 -0.5631102136 -0.7176599117
-242.8752849 330.878211 2410.908611 0.4097208055 -0.5631102136 -0.7176599117
-280.0124064 305.215464 2408.226408 0.4212414541 -0.4835558849 -0.767287002
-277.8432945 305.8423707 2409.030528 0.4212414541 -0.4835558849 -0.767287002
237.028205 -135.6762167 2019.640543 -0.4744196895 0.7766066115 0.4144974417
245.3502139 -133.1328355 2022.859468 -0.4744196895 0.7766066115 0.4144974417
189.5470206 -155.5732307 2010.434745 -0.3529676306 0.8390142763 0.4140880291
197.6167132 -152.7489612 2013.902802 -0.3529676306 0.8390142763 0.4140880291
232.0160697 -137.0613413 2016.713761 -0.4493590129 0.7835322345 0.4291313494
225.0821634 -139.0873342 2014.12197 -0.4493590129 0.7835322345 0.4291313494
213.4403653 -146.6467739 2016.860754 -0.4159614394 0.8137822435 0.4058750314
218.4026487 -145.137336 2018.773234 -0.4159614394 0.8137822435 0.4058750314
200.5519699 -152.5442171 2016.070602 -0.3676439139 0.8379905562 0.4032490302
203.7768602 -151.4884365 2017.385954 -0.3676439139 0.8379905562 0.4032490302
