# .PCD v0.7 - Point Cloud Data file format
VERSION 0.7
FIELDS x y z normal_x normal_y normal_z
SIZE 4 4 4 4 4 4
TYPE F F F F F F
COUNT 1 1 1 1 1 1
WIDTH 484
HEIGHT 1
VIEWPOINT 0 0 0 1 0 0 0
POINTS 484
DATA ascii
-527.0902305 -17.07276089 1973.027518 0.9495865459 0.136603854 0.2821786293
-524.4772114 -4.78355245 1963.737744 0.9495865459 0.136603854 0.2821786293
-528.5775697 -19.83498791 1974.013257 0.9448101617 0.1047172649 0.3104320421
-526.7601401 -14.33809828 1970.211908 0.9448101617 0.1047172649 0.3104320421
-531.3512689 -7.068743802 2000.257521 0.9839568332 0.1480298107 0.09957974499
-534.9037824 -2.232391815 1994.102175 0.9839568332 0.1480298107 0.09957974499
-411.6722805 -223.6862511 2158.673995 0.5606811433 0.7983739005 -0.2196264343
-406.6966181 -225.7502612 2163.188515 0.5606811433 0.7983739005 -0.2196264343
-386.4104247 -232.4001344 2181.710652 0.4592501766 0.8316232664 -0.3122371184
-370.7777077 -236.7768638 2194.056434 0.4592501766 0.8316232664 -0.3122371184
-434.6908518 -206.3757579 2153.031731 0.675774 0.7118214344 -0.1914151153
-439.3896405 -202.606989 2147.181826 0.675774 0.7118214344 -0.1914151153
-359.3781839 -233.952635 2214.04278 0.4022525577 0.8175021228 -0.4121688478
-355.939224 -234.4701483 2216.370387 0.4022525577 0.8175021228 -0.4121688478
-346.765656 -227.8368619 2235.486105 0.3563847175 0.784335691 -0.5077474342
-342.9338831 -227.6302418 2237.396636 0.3563847175 0.784335691 -0.5077474342
-356.3140668 -223.7841499 2235.250728 0.4242686045 0.7601272082 -0.4921410149
-356.5106606 -222.7885453 2234.275352 0.4242686045 0.7601272082 -0.4921410149
-532.1566876 15.19445376 1985.226793 0.9749188317 -0.0247322193 0.2211822529
-532.7818741 11.55179856 1988.061866 0.9749188317 -0.0247322193 0.2211822529
-534.2434797 -51.53983629 2033.337172 0.9724211315 0.2292173893 0.04308748517
-534.1943576 -53.33908733 2034.932818 0.9724211315 0.2292173893 0.04308748517
-80.59512502 317.2788074 1888.918701 -0.0855702416 -0.7422502509 0.6646369677
-116.3370376 309.637272 1876.08018 -0.0855702416 -0.7422502509 0.6646369677
-536.7761844 -29.33543686 2016.944214 0.9850846551 0.1181953921 0.1250522754
-536.6324684 -22.53061336 2011.08921 0.9850846551 0.1181953921 0.1250522754
337.7093175 229.5743307 2224.06616 -0.89975049 -0.284617186 -0.3308203639
337.6039044 221.8036807 2230.784208 -0.89975049 -0.284617186 -0.3308203639
-534.3753199 -43.77362591 2071.646042 0.9733259433 0.1813900822 -0.1404786321
-533.4629968 -46.02678948 2074.108454 0.9733259433 0.1813900822 -0.1404786321
-458.0852823 180.9909335 1879.276763 0.83514913 -0.3421257426 0.4306691386
-459.1182843 179.6839727 1879.852731 0.83514913 -0.3421257426 0.4306691386
110.4804863 368.773911 1997.413648 -0.06132063872 -0.8488313286 0.5250953769
97.55366456 366.0886883 1992.701876 -0.06132063872 -0.8488313286 0.5250953769
126.4150411 383.176174 2039.459742 -0.2056275216 -0.9342687571 0.291306045
100.5713225 384.0097873 2024.632028 -0.2056275216 -0.9342687571 0.291306045
-11.30534536 324.5310115 1905.478829 -0.1415180965 -0.7148382848 0.6848203085
-22.18041604 322.2746711 1901.512572 -0.1415180965 -0.7148382848 0.6848203085
-416.1575139 178.1739991 1814.249714 0.7152180752 -0.179698721 0.6754046747
-416.1049091 178.2488179 1814.213179 0.7152180752 -0.179698721 0.6754046747
-408.6468455 191.7244078 1810.821434 0.6779277576 -0.2470766707 0.6923633975
-406.7147073 195.1772843 1808.864936 0.6779277576 -0.2470766707 0.6923633975
-428.633296 206.7325183 1841.378386 0.777596986 -0.3224913168 0.5397613158
-430.5066196 203.0353249 1843.580005 0.777596986 -0.3224913168 0.5397613158
-460.7596462 181.3617159 1884.790156 0.8515872784 -0.3386593194 0.4001361926
-461.372912 180.2976489 1885.383352 0.8515872784 -0.3386593194 0.4001361926
-495.7729269 112.8129943 1906.607304 0.8775701348 -0.2348123594 0.4180117395
-490.1638632 123.0824928 1900.713304 0.8775701348 -0.2348123594 0.4180117395
330.9288947 165.6154573 2272.471003 -0.8915693624 -0.1463714117 -0.4285784432
331.1613925 166.7200903 2271.634681 -0.8915693624 -0.1463714117 -0.4285784432
-287.6691055 -220.3446528 2271.486421 0.1612480416 0.7528141201 -0.6381770677
-281.491844 -219.4584043 2274.084101 0.1612480416 0.7528141201 -0.6381770677
-178.9914159 318.0916404 1872.911674 -0.1196752647 -0.8358728372 0.5357186119
-168.5175145 318.7149103 1878.082988 -0.1196752647 -0.8358728372 0.5357186119
-506.1329193 100.3999355 1922.568053 0.8972730884 -0.2341704167 0.3742528834
-509.7127794 91.9706865 1927.964634 0.8972730884 -0.2341704167 0.3742528834
53.07520724 -171.2576876 2358.812948 -0.02333931332 0.8425183558 -0.5381617754
57.80054106 -170.1260131 2360.404429 -0.02333931332 0.8425183558 -0.5381617754
147.4007136 -154.9873615 2377.546175 -0.1300984009 0.8501020575 -0.5102949127
138.3031668 -157.3418409 2374.635343 -0.1300984009 0.8501020575 -0.5102949127
82.08925895 -168.4594377 2361.807462 -0.05319204729 0.8560031167 -0.5142268665
122.9218961 -158.5220528 2375.421734 -0.05319204729 0.8560031167 -0.5142268665
-529.9715965 -57.79067703 2079.844046 0.9558689418 0.24020952 -0.1691565918
-528.5274219 -61.04974675 2083.473739 0.9558689418 0.24020952 -0.1691565918
327.6939828 76.21377556 2334.098414 -0.919380954 -0.1593159789 -0.3596624533
327.9848715 78.05950731 2332.647756 -0.919380954 -0.1593159789 -0.3596624533
335.351117 188.7989089 2254.917239 -0.8972346099 -0.1809140325 -0.4027904762
335.0075304 186.6797426 2256.577564 -0.8972346099 -0.1809140325 -0.4027904762
336.8885256 206.4623149 2243.015586 -0.8961735962 -0.2079103569 -0.3919772557
335.1389143 194.1981737 2252.754595 -0.8961735962 -0.2079103569 -0.3919772557
334.5270785 245.0181886 2217.198787 -0.8838392952 -0.3618364753 -0.2964834996
334.7771339 248.4583928 2214.33556 -0.8838392952 -0.3618364753 -0.2964834996
331.1758112 259.5240847 2208.420522 -0.8686870136 -0.4151864711 -0.2701907969
331.7466776 259.128392 2209.077019 -0.8686870136 -0.4151864711 -0.2701907969
271.4498325 -64.06596584 2392.757183 -0.6974973598 0.4210761026 -0.5798209629
274.9939668 -59.48806944 2390.699269 -0.6974973598 0.4210761026 -0.5798209629
228.3853956 -106.4686504 2396.25864 -0.4887427596 0.6327581477 -0.6006227114
229.6989125 -106.4023749 2396.917533 -0.4887427596 0.6327581477 -0.6006227114
238.7427749 -98.48522058 2395.527103 -0.5405296564 0.5928409985 -0.5969650249
236.22531 -101.3846743 2396.681682 -0.5405296564 0.5928409985 -0.5969650249
23.79922835 370.6966343 1983.593294 -0.03044843998 -0.9080284492 0.4178004643
12.45608819 368.391643 1979.41407 -0.03044843998 -0.9080284492 0.4178004643
34.3958331 353.247236 1955.712836 -0.1401471645 -0.8323064146 0.536306633
24.57759763 352.4272643 1951.070779 -0.1401471645 -0.8323064146 0.536306633
-74.57503179 317.2890365 1889.526879 -0.07786697073 -0.7338400829 0.6748447729
-57.07387442 321.2706574 1895.604115 -0.07786697073 -0.7338400829 0.6748447729
-54.17540817 317.4245017 1891.893107 -0.09235930199 -0.7146093044 0.6933998135
-44.48156614 319.4975127 1895.374714 -0.09235930199 -0.7146093044 0.6933998135
-41.27036919 326.7409307 1903.768428 -0.07068741299 -0.7431789954 0.6653482325
-48.81594394 325.2114508 1900.98503 -0.07068741299 -0.7431789954 0.6653482325
-78.47862626 311.3373195 1882.844311 -0.0961527354 -0.7125428113 0.6950089162
-75.45107351 311.9691569 1883.945279 -0.0961527354 -0.7125428113 0.6950089162
-71.58368219 313.0402533 1885.414496 -0.09282371876 -0.7125961673 0.6954066865
-76.11687683 311.9798281 1883.865725 -0.09282371876 -0.7125961673 0.6954066865
-337.2880485 266.8151793 1801.558853 0.3538297749 -0.588570022 0.7269042713
-339.9375175 265.1074251 1801.602314 0.3538297749 -0.588570022 0.7269042713
-272.2599569 283.9561182 1798.369357 0.03754262095 -0.6685659649 0.7427045861
-272.8101354 283.7000147 1798.292477 0.03754262095 -0.6685659649 0.7427045861
-315.5762148 268.0961192 1793.858368 0.2452706065 -0.5949747214 0.7654066961
-314.3557325 268.981766 1793.752055 0.2452706065 -0.5949747214 0.7654066961
-459.2136498 167.3658256 1871.926923 0.8438572964 -0.2686798678 0.464452357
-457.8604514 169.8568585 1870.493217 0.8438572964 -0.2686798678 0.464452357
-431.5057901 211.0305843 1850.306643 0.7825928384 -0.362467614 0.5061281242
-436.3743786 202.7922542 1854.833598 0.7825928384 -0.362467614 0.5061281242
-101.8262824 -172.5081444 2341.402112 0.1085755139 0.7179103162 -0.6876162707
-82.19645062 -169.1572061 2349.190715 0.1085755139 0.7179103162 -0.6876162707
-242.3400436 -212.518617 2285.857477 0.05632160021 0.7418586429 -0.6681868237
-248.7994244 -214.0787482 2283.693454 0.05632160021 0.7418586429 -0.6681868237
-261.8721949 -216.5056821 2280.805458 0.06314979595 0.7380505088 -0.6717838564
-250.1650635 -213.3171214 2284.412861 0.06314979595 0.7380505088 -0.6717838564
-147.1355181 -162.0505027 2344.124887 0.1570688191 0.6260059477 -0.7638363303
-140.4446614 -160.7497075 2346.641333 0.1570688191 0.6260059477 -0.7638363303
-97.02316087 -155.4913972 2359.269841 0.1827090652 0.6495812717 -0.738011903
-88.30391858 -153.8932111 2362.633707 0.1827090652 0.6495812717 -0.738011903
-490.624769 129.403463 1905.534523 0.8834851704 -0.2596127607 0.3899425191
-491.3468703 128.0425731 1906.327148 0.8834851704 -0.2596127607 0.3899425191
-499.9072323 96.64159335 1907.217642 0.8661446534 -0.2153787062 0.451004936
-495.8803793 104.6021667 1902.473608 0.8661446534 -0.2153787062 0.451004936
-195.0030924 285.6164343 1825.716144 -0.2591018322 -0.6950060912 0.6706957385
-192.653825 285.1350065 1827.417729 -0.2591018322 -0.6950060912 0.6706957385
-60.58440088 140.9530953 1893.518641 -0.9464725922 0.03062698671 0.3213279008
-55.67676141 141.8618871 1895.403933 -0.9464725922 0.03062698671 0.3213279008
-129.842698 249.3111673 1834.740384 -0.6001811064 -0.5111633735 0.6152191846
-126.7872375 248.8478908 1836.811455 -0.6001811064 -0.5111633735 0.6152191846
-192.7260448 279.4276527 1819.981072 -0.2399055484 -0.6596751345 0.7122317353
-196.9901702 279.9223114 1817.223166 -0.2399055484 -0.6596751345 0.7122317353
-180.0245743 293.0686909 1839.265525 -0.1777418355 -0.7165559038 0.6745038745
-194.1161165 291.7930503 1832.689183 -0.1777418355 -0.7165559038 0.6745038745
-178.9173547 279.9743281 1825.694002 -0.2537356445 -0.6574622925 0.7094797789
-189.9600255 278.9850843 1820.531463 -0.2537356445 -0.6574622925 0.7094797789
-136.6882876 317.0174281 1881.442604 -0.09360966616 -0.7984470952 0.5947431938
-143.7884584 315.7334961 1878.688124 -0.09360966616 -0.7984470952 0.5947431938
-528.6422383 78.67247594 1974.890627 0.9640316538 -0.2107441914 0.1619563405
-529.3247355 76.81903105 1976.134341 0.9640316538 -0.2107441914 0.1619563405
-536.8843643 44.49050412 1999.992324 0.9938597426 -0.08558466897 0.07012899836
-535.2903533 51.78712656 1994.49981 0.9938597426 -0.08558466897 0.07012899836
-512.6550363 96.05529714 1938.48274 0.9119843731 -0.2545934699 0.3216623515
-518.2327822 87.44233164 1942.949425 0.9119843731 -0.2545934699 0.3216623515
330.8165936 168.4681109 2271.736389 -0.8898453679 -0.1551115144 -0.4290869833
331.8164576 173.3065902 2268.063057 -0.8898453679 -0.1551115144 -0.4290869833
43.77905352 -178.0449685 2349.088577 -0.06174827519 0.8541257331 -0.5163878219
41.47914475 -178.6677374 2348.37672 -0.06174827519 0.8541257331 -0.5163878219
52.73789016 -186.0613868 2332.738782 -0.1180420022 0.8910939799 -0.4381981341
32.62249773 -192.0125123 2326.952463 -0.1180420022 0.8910939799 -0.4381981341
53.69522793 -169.8262199 2360.993694 -0.02643941676 0.8353610177 -0.5490655037
36.71728184 -174.2920254 2355.624114 -0.02643941676 0.8353610177 -0.5490655037
-310.064678 -237.653038 2242.803552 0.2280164269 0.82910176 -0.5104887665
-312.8235222 -237.6926879 2241.332844 0.2280164269 0.82910176 -0.5104887665
-347.1195906 -232.2172439 2229.173687 0.3782962237 0.802292678 -0.4617558077
-342.8794816 -232.3308715 2231.586252 0.3782962237 0.802292678 -0.4617558077
-292.8156611 -227.2939409 2261.288061 0.1869808201 0.7875605605 -0.5871852659
-301.8575567 -229.3447982 2258.142852 0.1869808201 0.7875605605 -0.5871852659
125.2959127 384.9971255 2035.171325 0.01779240783 -0.9137883305 0.4058008345
121.9858871 384.4576031 2033.835742 0.01779240783 -0.9137883305 0.4058008345
100.3774222 382.6499501 2023.244128 -0.01080531793 -0.9182115246 0.3959429773
127.7054322 385.3422419 2035.807313 -0.01080531793 -0.9182115246 0.3959429773
102.2969123 290.6237631 1902.596467 -0.2588709733 -0.4447381691 0.8574344174
101.0035455 290.250654 1902.21611 -0.2588709733 -0.4447381691 0.8574344174
180.8473885 350.8464706 2049.277991 -0.6233637302 -0.7660045798 0.1570179721
178.4176853 355.2149735 2044.143211 -0.6233637302 -0.7660045798 0.1570179721
187.6478445 -143.5416193 2380.360446 -0.2976423288 0.8036257237 -0.5153588462
186.5310459 -144.0301611 2380.177079 -0.2976423288 0.8036257237 -0.5153588462
-446.6157347 161.0232469 1848.626975 0.7876337128 -0.2245118096 0.573783567
-437.3825534 175.2010933 1841.30251 0.7876337128 -0.2245118096 0.573783567
-174.5597931 322.9880032 1884.183111 -0.03985443376 -0.8497181359 0.5257287453
-178.8745241 322.1704707 1882.541749 -0.03985443376 -0.8497181359 0.5257287453
-11.31821425 318.0291304 1898.996993 -0.1414537521 -0.6823288794 0.7172294866
-10.63418962 318.170907 1899.24659 -0.1414537521 -0.6823288794 0.7172294866
-6.319032325 318.5678711 1900.550967 -0.1623391488 -0.6842063166 0.710990659
-6.457110265 318.5463945 1900.494355 -0.1623391488 -0.6842063166 0.710990659
331.2056201 165.6060295 2271.896178 -0.8929529894 -0.1463242723 -0.4257043176
328.6016295 153.1461086 2281.339729 -0.8929529894 -0.1463242723 -0.4257043176
73.00609676 -173.3679356 2353.364532 -0.08249242836 0.8633621736 -0.4977958984
79.0101964 -171.9064414 2355.36615 -0.08249242836 0.8633621736 -0.4977958984
74.86386205 -171.2067274 2357.605258 -0.01706506276 0.8697395652 -0.4932158476
65.92472328 -173.1819198 2354.45014 -0.01706506276 0.8697395652 -0.4932158476
-93.66406553 -153.3549414 2361.679078 0.2095097999 0.6468899232 -0.7332387544
-91.32852457 -152.8993596 2362.556154 0.2095097999 0.6468899232 -0.7332387544
-137.110539 -166.8049458 2342.141676 0.1403982068 0.6562821392 -0.7413380452
-130.7253302 -165.4832571 2344.473137 0.1403982068 0.6562821392 -0.7413380452
-131.095067 -160.3352311 2348.80731 0.142246891 0.6305420095 -0.7630089097
-114.7005969 -156.5743105 2354.473153 0.142246891 0.6305420095 -0.7630089097
327.736087 107.1697148 2304.078143 -0.9242205987 -0.1593374764 -0.3470271656
328.9956789 117.4264631 2295.822102 -0.9242205987 -0.1593374764 -0.3470271656
328.4662718 103.9509854 2303.530721 -0.9278715223 -0.1432438294 -0.3442900572
328.1295211 102.6952891 2304.441879 -0.9278715223 -0.1432438294 -0.3442900572
-170.0315617 322.1135467 1883.23612 -0.1121050285 -0.8528660191 0.5099529547
-167.4493666 322.3458534 1884.442459 -0.1121050285 -0.8528660191 0.5099529547
-170.9428433 322.8419275 1884.54875 -0.0795128378 -0.85307542 0.5156937429
-173.9678048 322.3877335 1883.294302 -0.0795128378 -0.85307542 0.5156937429
-129.3613295 303.2791223 1866.153663 -0.1302444567 -0.729755566 0.6711878988
-114.8333381 305.7566024 1871.920205 -0.1302444567 -0.729755566 0.6711878988
-113.250403 306.7490048 1873.343651 -0.1329691226 -0.7338625289 0.6661568893
-111.9937578 306.9512586 1873.852948 -0.1329691226 -0.7338625289 0.6661568893
-112.7397888 301.2040972 1867.541636 -0.1407122029 -0.7069930397 0.693080744
-111.7017869 301.375107 1867.95888 -0.1407122029 -0.7069930397 0.693080744
-220.8612207 321.1080102 1869.47726 -0.05738720016 -0.8701671922 0.4894034806
-220.4966055 321.1670863 1869.624691 -0.05738720016 -0.8701671922 0.4894034806
-226.1316505 329.7039523 1886.056321 -0.02921197477 -0.9128515219 0.4072453307
-225.2627574 329.8436963 1886.408557 -0.02921197477 -0.9128515219 0.4072453307
-485.7314311 123.9513321 1892.287124 0.8590184812 -0.2323521061 0.4561795127
-480.4770774 132.8725534 1887.375208 0.8590184812 -0.2323521061 0.4561795127
53.1718257 -166.3642909 2366.174405 -0.0001957365433 0.8237097448 -0.567011656
53.19248894 -166.3603769 2366.182267 -0.0001957365433 0.8237097448 -0.567011656
71.02727361 -168.0265145 2362.339119 -0.07366731936 0.836448442 -0.5430719381
67.8868055 -168.9081164 2361.394323 -0.07366731936 0.836448442 -0.5430719381
69.98581594 -169.8448355 2359.667719 -0.06739102427 0.8457466733 -0.5293118311
69.77201459 -169.8861607 2359.587098 -0.06739102427 0.8457466733 -0.5293118311
-104.9763933 -174.3708175 2338.888301 0.1243260684 0.7272236817 -0.6750472172
-107.0869099 -174.8998713 2338.198066 0.1243260684 0.7272236817 -0.6750472172
-121.5984552 -168.206868 2342.505652 0.1767361827 0.6887047971 -0.7031714045
-117.5689328 -167.1960944 2343.822903 0.1767361827 0.6887047971 -0.7031714045
329.1246103 119.5965229 2291.423519 -0.9288639011 -0.305920491 -0.2088648042
329.4250762 116.4376451 2294.341821 -0.9288639011 -0.305920491 -0.2088648042
187.3583463 322.1465957 1987.708142 -0.6680670353 -0.6006626905 0.4391933157
187.0588742 322.6478654 1987.107665 -0.6680670353 -0.6006626905 0.4391933157
184.5499244 338.9888429 2021.168042 -0.6418764097 -0.7067164413 0.2975677172
184.7698991 338.4739039 2021.737062 -0.6418764097 -0.7067164413 0.2975677172
105.7231395 283.1684348 1899.98017 -0.2760021092 -0.4074615276 0.8705159041
108.5183264 283.9958931 1900.783783 -0.2760021092 -0.4074615276 0.8705159041
120.6802795 289.2590786 1907.746917 -0.336811875 -0.4337774553 0.8357002334
120.7340752 289.2638315 1907.772125 -0.336811875 -0.4337774553 0.8357002334
140.2066404 310.0753623 1930.366462 -0.4338058662 -0.537800175 0.7228993307
140.1328735 310.0683754 1930.332306 -0.4338058662 -0.537800175 0.7228993307
123.8714847 384.3291506 2033.757192 0.02491454768 -0.9104484558 0.4128714989
128.0212503 384.9395617 2035.489144 0.02491454768 -0.9104484558 0.4128714989
157.1674987 -156.1870805 2372.456238 -0.1789323264 0.8561006525 -0.4848452282
160.4366248 -155.2129954 2373.390592 -0.1789323264 0.8561006525 -0.4848452282
147.9359703 -163.2620935 2361.823924 -0.1046669509 0.8997853859 -0.4235930697
145.5835497 -163.9499421 2361.140161 -0.1046669509 0.8997853859 -0.4235930697
327.8514819 118.8308403 2297.608705 -0.9209959293 -0.3178864674 -0.2251992275
327.9862403 116.7265045 2299.517093 -0.9209959293 -0.3178864674 -0.2251992275
326.6200399 119.7992124 2300.627835 -0.9141649275 -0.3332500071 -0.2307529372
326.8558566 117.9952385 2302.329464 -0.9141649275 -0.3332500071 -0.2307529372
328.9112517 108.5783911 2306.819374 -0.923887884 -0.2903609526 -0.2492422417
328.8004478 109.4174276 2306.027325 -0.923887884 -0.2903609526 -0.2492422417
-378.8318966 215.9109141 1794.108237 0.5385137042 -0.3507448199 0.766146893
-376.8743033 217.5423847 1793.75379 0.5385137042 -0.3507448199 0.766146893
-196.1639363 -173.985472 2322.626086 0.1379964486 0.637207542 -0.758237119
-199.2382557 -174.7508379 2321.616031 0.1379964486 0.637207542 -0.758237119
-209.9348536 -185.6727703 2311.20866 0.06247218311 0.6598957481 -0.7487555195
-208.0576586 -185.1990087 2311.819802 0.06247218311 0.6598957481 -0.7487555195
-71.66756212 -178.6717004 2342.17734 0.2084805327 0.7836580577 -0.5851631533
-84.90209893 -179.9240508 2336.04829 0.2084805327 0.7836580577 -0.5851631533
-55.08527426 -185.5670443 2338.217864 0.1652318896 0.8211146795 -0.5463232613
-63.01783349 -186.1630247 2334.409362 0.1652318896 0.8211146795 -0.5463232613
-90.16318804 -173.6971524 2342.073991 0.2347859783 0.752523566 -0.6152916602
-91.93367324 -173.8135294 2341.209453 0.2347859783 0.752523566 -0.6152916602
-44.46521817 -184.5062627 2343.139981 0.1330073736 0.8172180301 -0.5607706571
-45.78126364 -184.6030447 2342.506308 0.1330073736 0.8172180301 -0.5607706571
-57.08930255 -184.2393466 2339.572425 0.1752520311 0.8144761913 -0.5530960671
-54.23019512 -184.0546769 2340.97139 0.1752520311 0.8144761913 -0.5530960671
-499.3179194 114.9688134 1915.877552 0.8952950973 -0.2455914549 0.3716604983
-501.7104681 110.6447165 1918.342495 0.8952950973 -0.2455914549 0.3716604983
329.3118263 89.05574568 2322.867206 -0.9260157282 -0.2142971707 -0.3107597043
329.3596674 90.43252685 2321.692835 -0.9260157282 -0.2142971707 -0.3107597043
332.0765134 100.0105115 2293.958086 -0.9476064834 -0.1298199414 -0.291871094
331.6154357 95.68547238 2297.477701 -0.9476064834 -0.1298199414 -0.291871094
331.9096808 101.6190326 2293.441374 -0.949077709 -0.1594877423 -0.2716894595
331.8641716 101.0975563 2293.871241 -0.949077709 -0.1594877423 -0.2716894595
332.2777031 110.6370771 2285.31401 -0.9511453665 -0.2071853464 -0.228903307
332.2909369 110.0040378 2285.873205 -0.9511453665 -0.2071853464 -0.228903307
-4.723863322 325.5720236 1908.033812 -0.1703149938 -0.7192270789 0.6735764336
3.590948779 326.532546 1911.733019 -0.1703149938 -0.7192270789 0.6735764336
326.0527517 121.0319027 2301.607273 -0.909505963 -0.1773646741 -0.3759530232
326.624578 124.7135871 2298.709054 -0.909505963 -0.1773646741 -0.3759530232
328.3729006 124.6712028 2286.758209 -0.9251053527 -0.3312938907 -0.1855382556
327.8195899 127.1325526 2284.310155 -0.9251053527 -0.3312938907 -0.1855382556
333.5166247 108.501455 2281.929265 -0.9572738055 -0.1996724325 -0.2091836061
333.3744599 106.7882761 2283.345491 -0.9572738055 -0.1996724325 -0.2091836061
333.580007 181.8061274 2261.628044 -0.890096993 -0.1565459567 -0.4280428794
331.8667826 173.5934787 2267.854236 -0.890096993 -0.1565459567 -0.4280428794
328.0120817 141.9618701 2287.176603 -0.9033019204 -0.167420929 -0.3949884467
327.5110263 138.8639243 2289.60445 -0.9033019204 -0.167420929 -0.3949884467
329.3306558 149.1684888 2281.446233 -0.9023152761 -0.1595910932 -0.4004470321
330.1833864 154.2079998 2277.517333 -0.9023152761 -0.1595910932 -0.4004470321
327.6612279 126.3371932 2295.360191 -0.9124406173 -0.1682205027 -0.3730334868
329.3387657 139.0238391 2285.213458 -0.9124406173 -0.1682205027 -0.3730334868
329.3630668 152.7657484 2279.888238 -0.898213678 -0.1523798364 -0.4123015574
329.6537673 154.3572214 2278.659177 -0.898213678 -0.1523798364 -0.4123015574
113.4101425 329.8976824 1942.967794 -0.2850776269 -0.6638353341 0.6914140553
110.7424009 329.5320769 1941.831008 -0.2850776269 -0.6638353341 0.6914140553
26.60248673 348.9801228 1947.335332 -0.04446473186 -0.799445892 0.5990902714
49.85864981 354.534946 1955.180872 -0.04446473186 -0.799445892 0.5990902714
79.5388707 300.1338661 1902.536348 -0.156096753 -0.495460237 0.8544898813
79.27250408 300.0425656 1902.470622 -0.156096753 -0.495460237 0.8544898813
79.72948028 278.7003034 1891.825555 -0.1525006472 -0.3869864161 0.9093871928
79.16800656 278.5364483 1891.662076 -0.1525006472 -0.3869864161 0.9093871928
64.90793361 279.3957908 1890.203318 -0.08120028241 -0.3912831285 0.9166809846
64.55957658 279.2984444 1890.098127 -0.08120028241 -0.3912831285 0.9166809846
105.5650782 359.5580597 1975.661728 -0.2305963001 -0.8120101192 0.5361575447
99.84613555 359.1670339 1972.88231 -0.2305963001 -0.8120101192 0.5361575447
129.1971319 386.9054779 2039.903096 0.01903513962 -0.9202780367 0.3908017382
135.7819976 388.1870902 2042.378438 0.01903513962 -0.9202780367 0.3908017382
313.887441 19.55504531 2368.793446 -0.8674053854 0.06730535151 -0.4930292963
314.8282845 21.45378947 2367.651192 -0.8674053854 0.06730535151 -0.4930292963
307.9090439 9.150948077 2376.810784 -0.8398205083 0.1149455235 -0.5305554075
308.3704656 10.02701091 2376.298668 -0.8398205083 0.1149455235 -0.5305554075
302.8790128 -3.287799828 2381.122963 -0.8180899693 0.1713801676 -0.5489605089
303.5629361 -2.13598073 2380.491804 -0.8180899693 0.1713801676 -0.5489605089
295.7683668 -31.2007247 2380.491205 -0.8013693599 0.2796393788 -0.5287806414
297.5156868 -28.35694482 2378.964964 -0.8013693599 0.2796393788 -0.5287806414
300.2442695 -14.29793365 2381.26992 -0.8150122734 0.209344323 -0.5403054216
302.2634736 -10.88063091 2379.391945 -0.8150122734 0.209344323 -0.5403054216
323.8090719 47.36413597 2351.268484 -0.9059774574 -0.04732400939 -0.4206724199
324.4418388 50.16743707 2349.169416 -0.9059774574 -0.04732400939 -0.4206724199
12.29776671 335.8924891 1926.117075 -0.1752417652 -0.7640040838 0.6209573928
31.59651776 338.7667981 1934.140627 -0.1752417652 -0.7640040838 0.6209573928
-32.24302671 328.2706903 1906.275693 -0.09120504317 -0.7448183807 0.6610047048
-34.17761263 327.7974056 1905.632821 -0.09120504317 -0.7448183807 0.6610047048
-45.3455306 329.6582751 1906.721225 -0.05031160592 -0.7577657173 0.6505842452
-42.35630008 330.3868729 1907.716913 -0.05031160592 -0.7577657173 0.6505842452
8.718197835 334.4791601 1922.25771 -0.1959512391 -0.7589601497 0.6209529797
16.43966149 334.8837022 1926.117958 -0.1959512391 -0.7589601497 0.6209529797
-116.2897341 305.8667743 1871.991826 -0.08580675894 -0.7233977626 0.6850787379
-119.1443968 305.2418402 1870.979172 -0.08580675894 -0.7233977626 0.6850787379
-117.8514608 305.1534401 1870.877302 -0.1036806075 -0.7248734363 0.6810351188
-115.569627 305.5369749 1871.787896 -0.1036806075 -0.7248734363 0.6810351188
-198.0022676 -176.6329634 2320.157351 0.1105451605 0.6420991995 -0.7586095079
-205.6377129 -178.471805 2317.594664 0.1105451605 0.6420991995 -0.7586095079
-209.9722113 -180.8119081 2315.407049 0.07204494661 0.6379602454 -0.7666917574
-197.9376701 -177.6440142 2319.211113 0.07204494661 0.6379602454 -0.7666917574
-195.6451206 -174.6555274 2322.305898 0.1200307734 0.6367309898 -0.7616864579
-199.8993902 -175.5593215 2320.772741 0.1200307734 0.6367309898 -0.7616864579
-95.94127655 -159.0254167 2355.46139 0.2325735598 0.6775202088 -0.697764936
-94.94524809 -158.9300823 2355.921717 0.2325735598 0.6775202088 -0.697764936
61.67817899 -195.1068148 2300.039475 -0.328614009 0.8876126913 -0.3227329288
74.73689907 -191.3162545 2303.859422 -0.328614009 0.8876126913 -0.3227329288
-147.8823268 -165.9295939 2340.702787 0.1608028629 0.6454014039 -0.7467258313
-166.4906387 -169.2547089 2333.44903 0.1608028629 0.6454014039 -0.7467258313
-170.4822307 283.2289662 1833.628164 -0.1622211907 -0.6615594662 0.7321361608
-170.2888786 283.2419981 1833.722298 -0.1622211907 -0.6615594662 0.7321361608
-202.0766345 319.1218254 1868.629568 -0.07435686995 -0.8479173611 0.5248878019
-200.7015674 319.3409824 1869.188739 -0.07435686995 -0.8479173611 0.5248878019
-225.1027233 329.7933374 1886.307392 -0.0300121452 -0.9125997275 0.40775116
-223.1770537 330.1020231 1887.088919 -0.0300121452 -0.9125997275 0.40775116
-207.6223255 327.6974917 1883.266108 -0.05800731547 -0.8926113017 0.4470796523
-217.5780197 326.1043379 1879.223221 -0.05800731547 -0.8926113017 0.4470796523
-207.6054307 328.427152 1884.660437 -0.04671288859 -0.8944439946 0.4447334557
-209.8812109 328.0640303 1883.735347 -0.04671288859 -0.8944439946 0.4447334557
272.1999499 354.394955 2117.146767 -0.595784961 -0.7976198028 0.09403685715
270.4823688 354.7864533 2115.868256 -0.595784961 -0.7976198028 0.09403685715
311.4506025 316.721475 2142.22 -0.7894840607 -0.6131989542 -0.02649453635
310.9397698 317.5107853 2141.253046 -0.7894840607 -0.6131989542 -0.02649453635
328.3163005 270.2454005 2199.216156 -0.8543894598 -0.4687930502 -0.22416897
324.9270715 283.6498357 2185.679022 -0.8543894598 -0.4687930502 -0.22416897
325.9114253 285.3900599 2177.496846 -0.859311229 -0.4774941711 -0.1832580921
325.4160362 289.5805184 2173.572711 -0.859311229 -0.4774941711 -0.1832580921
-171.5680955 -167.6687516 2333.634249 0.1726556261 0.6350520507 -0.7529269073
-174.6410468 -168.2671038 2332.479314 0.1726556261 0.6350520507 -0.7529269073
-199.9104122 -173.1643763 2322.585766 0.1567288282 0.6331020636 -0.7580355212
-191.2859203 -171.6198604 2325.944732 0.1567288282 0.6331020636 -0.7580355212
-170.9854611 -170.6779809 2331.215168 0.1543776975 0.6471064362 -0.7466061791
-190.8156942 -174.4207349 2323.658863 0.1543776975 0.6471064362 -0.7466061791
-439.6830143 -199.1728544 2157.398339 0.6772408687 0.6946507614 -0.2424976814
-440.687857 -199.9140386 2157.496347 0.6772408687 0.6946507614 -0.2424976814
332.0836308 116.2671984 2280.409659 -0.9464255575 -0.27696712 -0.1660357746
331.6445614 119.6706309 2277.202495 -0.9464255575 -0.27696712 -0.1660357746
333.3654005 111.9781471 2277.734944 -0.9572285083 -0.2256217876 -0.1811308692
333.6092049 110.6220117 2279.050441 -0.9572285083 -0.2256217876 -0.1811308692
331.2233256 120.5783813 2277.788493 -0.945299112 -0.2754036356 -0.174821127
331.4192723 119.357934 2278.959565 -0.945299112 -0.2754036356 -0.174821127
328.763731 149.3721162 2282.63148 -0.8994806522 -0.16060923 -0.4063732664
327.247828 140.5995303 2289.453567 -0.8994806522 -0.16060923 -0.4063732664
142.6511659 395.8589943 2063.695275 -0.01531070204 -0.958637557 0.2842175517
143.2449594 395.9564711 2063.934266 -0.01531070204 -0.958637557 0.2842175517
327.4355145 67.81339167 2337.889291 -0.9180886127 -0.1173140594 -0.3786168388
326.8640699 64.16544708 2340.758299 -0.9180886127 -0.1173140594 -0.3786168388
323.0297689 35.46826266 2353.413133 -0.9020809423 0.01215535716 -0.4313956663
322.8117621 34.56993014 2354.077479 -0.9020809423 0.01215535716 -0.4313956663
317.5212597 19.03740266 2362.37598 -0.8808702615 0.07938728557 -0.4666532345
318.569626 21.12354446 2361.128993 -0.8808702615 0.07938728557 -0.4666532345
-197.9897726 313.4530466 1861.819542 -0.1717444407 -0.8318923741 0.5276920741
-210.1253033 312.5122631 1856.018462 -0.1717444407 -0.8318923741 0.5276920741
328.9429545 99.2928086 2315.923917 -0.9239321635 -0.2585985795 -0.2819151148
328.9201076 102.2259165 2313.353948 -0.9239321635 -0.2585985795 -0.2819151148
-154.2486075 312.2283992 1871.491442 -0.1179255422 -0.792200989 0.5987580142
-140.3395084 314.2545968 1877.313797 -0.1179255422 -0.792200989 0.5987580142
-169.6828737 318.696039 1877.998449 -0.06423903045 -0.8282583149 0.5566520554
-164.9859099 319.4398644 1879.912634 -0.06423903045 -0.8282583149 0.5566520554
-143.5737039 319.9501602 1884.604919 -0.09468343876 -0.8195304156 0.5651592204
-144.9879291 319.7204821 1884.033555 -0.09468343876 -0.8195304156 0.5651592204
133.912645 -155.8107308 2192.350803 -0.6897863392 0.6911322715 0.2157104299
134.170559 -155.7498611 2192.438451 -0.6897863392 0.6911322715 0.2157104299
-461.5480633 -180.2258461 2145.726163 0.7815419005 0.596209799 -0.1836467626
-463.3955335 -177.9504094 2142.734096 0.7815419005 0.596209799 -0.1836467626
-475.5765573 -164.408408 2124.022479 0.8262120151 0.5507820783 -0.1183757084
-472.3295564 -168.8648653 2129.679885 0.8262120151 0.5507820783 -0.1183757084
327.2431674 127.2068634 2295.981759 -0.9103503147 -0.172568854 -0.3761413234
326.7934483 123.7544231 2298.746714 -0.9103503147 -0.172568854 -0.3761413234
-223.1156 -194.5956656 2303.978034 -0.0004113139791 0.6641044169 -0.7476397222
-214.9449981 -192.0206893 2306.190845 -0.0004113139791 0.6641044169 -0.7476397222
-215.8357361 -189.4685932 2308.417273 0.004042375652 0.6513439362 -0.7587718603
-200.6979526 -184.7094042 2312.52701 0.004042375652 0.6513439362 -0.7587718603
-198.1299624 -180.5874569 2315.994488 0.0006163769412 0.6337117271 -0.7735690448
-198.0722973 -180.5594978 2316.001572 0.0006163769412 0.6337117271 -0.7735690448
-200.0674655 -181.4829935 2315.242766 0.0103038922 0.6381894099 -0.7698104357
-201.9502559 -182.0784989 2314.734725 0.0103038922 0.6381894099 -0.7698104357
-234.9353766 -204.5792522 2294.571277 0.01929826515 0.7021618187 -0.7117558271
-227.0575158 -202.207146 2296.801255 0.01929826515 0.7021618187 -0.7117558271
-98.86294673 -169.3907692 2343.675268 0.2694323458 0.7304097647 -0.6276207348
-99.98949676 -169.444865 2343.107768 0.2694323458 0.7304097647 -0.6276207348
-99.68454823 -163.3235553 2349.791785 0.2562700605 0.6994875739 -0.6671152749
-98.84325647 -163.2567719 2350.192579 0.2562700605 0.6994875739 -0.6671152749
-103.3394596 -164.793947 2346.894306 0.2861821602 0.7071551747 -0.646553424
-104.8256764 -164.7902921 2346.080209 0.2861821602 0.7071551747 -0.646553424
28.77358311 -196.7751225 2318.430803 -0.1536638516 0.898493331 -0.4112142446
29.25765304 -196.6548752 2318.590073 -0.1536638516 0.898493331 -0.4112142446
-479.5168536 -160.5177085 2109.556671 0.8459134965 0.5313285811 -0.04604666537
-480.1403514 -159.572371 2108.392197 0.8459134965 0.5313285811 -0.04604666537
165.5929258 395.715949 2069.053224 -0.1257835301 -0.9575418379 0.2594072709
165.339525 395.7373273 2068.896323 -0.1257835301 -0.9575418379 0.2594072709
205.5306716 391.8570717 2097.474475 -0.325472259 -0.9382474515 0.1173010163
211.4102111 390.8538777 2101.557197 -0.325472259 -0.9382474515 0.1173010163
271.2185851 355.3263944 2136.948496 -0.5994660426 -0.8003195084 -0.01136434092
266.2089678 363.2682891 2127.290269 -0.5994660426 -0.8003195084 -0.01136434092
-478.0835758 136.9888796 1885.116903 0.8470509731 -0.252933737 0.4674710405
-472.1376965 147.2619282 1879.403581 0.8470509731 -0.252933737 0.4674710405
-208.9638918 -186.2726943 2310.755911 0.05761737421 0.6628953683 -0.7464917741
-209.36425 -186.3679981 2310.620567 0.05761737421 0.6628953683 -0.7464917741
-202.0487765 -185.0749386 2312.133995 0.02049877285 0.6562889307 -0.754231158
-201.9405297 -185.0467106 2312.168443 0.02049877285 0.6562889307 -0.754231158
-455.6769271 170.8339789 1867.550723 0.817942344 -0.2978757735 0.4921791802
-465.9414464 156.8628992 1874.13218 0.817942344 -0.2978757735 0.4921791802
-472.2621169 157.8585753 1886.210959 0.8476730748 -0.3059169725 0.4334341521
-471.8875926 158.471139 1885.881186 0.8476730748 -0.3059169725 0.4334341521
-166.1520319 -164.7584637 2337.290614 0.1591098287 0.6229201777 -0.7659337534
-167.9862269 -165.0748004 2336.565668 0.1591098287 0.6229201777 -0.7659337534
-169.9378751 -167.0479724 2334.518969 0.1645045245 0.6319481545 -0.7573505077
-169.0651661 -166.8803958 2334.849019 0.1645045245 0.6319481545 -0.7573505077
-3.84322158 380.8246169 2001.440931 0.2257367119 -0.9092165988 0.3498115398
-4.181638944 376.4890873 2005.036619 0.2257367119 -0.9092165988 0.3498115398
42.38942729 361.8369903 1954.694821 0.02831863097 -0.8044323607 0.5933688838
35.64039461 359.8677693 1952.729462 0.02831863097 -0.8044323607 0.5933688838
27.99429917 87.27080717 2068.219962 -0.1536981867 -0.5227078651 0.8385423992
28.5232957 87.40163918 2068.394515 -0.1536981867 -0.5227078651 0.8385423992
39.76910356 80.20216243 2066.495232 -0.2086414539 -0.4863930937 0.8484636127
39.51194914 80.13868491 2066.410272 -0.2086414539 -0.4863930937 0.8484636127
-483.5631026 -153.4255876 2112.731213 0.8630272526 0.5005946641 -0.06774174146
-484.548073 -152.0539757 2110.997826 0.8630272526 0.5005946641 -0.06774174146
-500.3680313 -124.3353505 2099.034437 0.8991050229 0.4285087703 -0.08938899009
-498.2001565 -128.0540868 2103.459799 0.8991050229 0.4285087703 -0.08938899009
-492.9435572 -138.5660194 2102.019607 0.8728220265 0.4810684337 -0.08218802903
-486.5070278 -148.1487296 2113.887083 0.8728220265 0.4810684337 -0.08218802903
-524.3038574 -78.49396086 2077.231951 0.934751119 0.3274305905 -0.1379476494
-509.7649851 -99.49326703 2103.474849 0.934751119 0.3274305905 -0.1379476494
-504.971936 -114.0580441 2097.268735 0.9176266402 0.3867822542 -0.09143761278
-504.0723547 -115.9900473 2099.444161 0.9176266402 0.3867822542 -0.09143761278
-507.9499899 -106.106734 2098.83302 0.9256761429 0.3604979254 -0.114738504
-506.5818365 -108.8011783 2101.928913 0.9256761429 0.3604979254 -0.114738504
31.68108563 84.04936006 2066.983359 -0.1773389722 -0.5078638344 0.8429858923
32.349111 84.20970532 2067.208035 -0.1773389722 -0.5078638344 0.8429858923
16.3202475 95.64365661 2071.956381 -0.09532792832 -0.5645721123 0.8198603028
15.94690222 95.55136091 2071.833153 -0.09532792832 -0.5645721123 0.8198603028
-27.05688201 -180.1913879 2351.31072 0.06239298583 0.800129849 -0.5965729964
-30.34234061 -181.0886265 2350.300448 0.06239298583 0.800129849 -0.5965729964
-9.485444043 -185.7772194 2344.003109 -0.009167972843 0.832050656 -0.5546238853
-12.74469028 -186.5755493 2342.920897 -0.009167972843 0.832050656 -0.5546238853
9.891915554 -195.0343764 2326.304398 -0.1060547708 0.8783364407 -0.4661303279
14.44725231 -193.9186654 2327.817045 -0.1060547708 0.8783364407 -0.4661303279
6.6648877 -179.5910632 2352.46632 -0.04070002489 0.8131742709 -0.5805954815
1.376303124 -180.8862314 2350.710075 -0.04070002489 0.8131742709 -0.5805954815
-201.022963 324.0631038 1875.960119 -0.2493065427 -0.8807203186 0.4027132581
-202.4080268 323.9757209 1875.280594 -0.2493065427 -0.8807203186 0.4027132581
-165.5321684 295.8929173 1847.792523 -0.2264205172 -0.7302975837 0.6445146924
-163.3954276 296.0330566 1848.836179 -0.2264205172 -0.7302975837 0.6445146924
-167.2422569 272.6584313 1825.320713 -0.2071863709 -0.6134244569 0.7620920176
-161.2958425 273.6149962 1827.731126 -0.2071863709 -0.6134244569 0.7620920176
-161.8832887 288.3234862 1840.95284 -0.2446649159 -0.6924504286 0.6787131079
-170.4735978 287.1889087 1837.255082 -0.2446649159 -0.6924504286 0.6787131079
-218.5417694 327.592722 1874.900993 -0.1686378294 -0.8988053242 0.4046112599
-221.2407438 328.5319805 1872.609399 -0.1686378294 -0.8988053242 0.4046112599
-224.8366016 302.1185179 1823.053056 -0.1995741552 -0.7593779633 0.6192860934
-215.0534786 300.6465083 1829.674432 -0.1995741552 -0.7593779633 0.6192860934
-162.9618158 277.7341587 1830.756837 -0.3037441989 -0.6460680581 0.7002396204
-158.6577412 277.9124346 1832.94978 -0.3037441989 -0.6460680581 0.7002396204
-166.8602686 326.0932839 1906.737528 -0.3476932664 -0.8918840817 0.2892268613
-170.4004411 325.764655 1905.092484 -0.3476932664 -0.8918840817 0.2892268613
-188.0591843 304.8125769 1849.556866 -0.3141254365 -0.7844676838 0.5347295234
-177.114007 304.2813754 1855.991952 -0.3141254365 -0.7844676838 0.5347295234
-159.6678684 315.9943868 1888.458743 -0.3836552675 -0.8413895962 0.3806207866
-153.1025649 316.1160048 1891.93486 -0.3836552675 -0.8413895962 0.3806207866
-137.0319035 271.0851227 1838.650613 -0.43339376 -0.6128228778 0.6607707388
-143.1548664 270.4026611 1835.90487 -0.43339376 -0.6128228778 0.6607707388
