# .PCD v0.7 - Point Cloud Data file format
VERSION 0.7
FIELDS x y z normal_x normal_y normal_z
SIZE 4 4 4 4 4 4
TYPE F F F F F F
COUNT 1 1 1 1 1 1
WIDTH 450
HEIGHT 1
VIEWPOINT 0 0 0 1 0 0 0
POINTS 450
DATA ascii
-491.8619654 -79.30783382 1929.862402 0.8084934964 0.4399332587 0.390892561
-494.0458687 -81.19264526 1934.897176 0.8084934964 0.4399332587 0.390892561
-504.1128154 -54.13509255 1930.709386 0.8588282295 0.3046454951 0.4118315123
-507.8917123 -58.58257261 1944.496659 0.8588282295 0.3046454951 0.4118315123
-526.595549 -19.28669144 1965.636345 0.9448101617 0.1047172649 0.3104320421
-528.6940774 -21.70608275 1973.077059 0.9448101617 0.1047172649 0.3104320421
128.5695095 52.34344188 2501.547734 -0.1891604296 0.1153517741 -0.9751473222
135.4036605 54.79198313 2500.553386 -0.1891604296 0.1153517741 -0.9751473222
-492.1681834 -76.92662729 1927.877864 0.8100245863 0.428027226 0.4008152485
-490.8468974 -75.43642324 1923.334662 0.8100245863 0.428027226 0.4008152485
-474.9266145 -65.01319199 1898.472134 0.6864654896 0.3333497676 0.646253096
-474.1330206 -64.87421076 1898.978614 0.6864654896 0.3333497676 0.646253096
-461.5348264 -72.07407403 1889.989965 0.6270438 0.3721030022 0.6843649821
-462.2486827 -72.62485768 1891.356237 0.6270438 0.3721030022 0.6843649821
-231.8920035 -119.0890087 2357.698826 -0.02992647254 0.5715375467 -0.8200300232
-225.4127126 -117.2197349 2358.690771 -0.02992647254 0.5715375467 -0.8200300232
-490.9518588 -59.48382505 1909.323044 0.8105493933 0.348264235 0.4708733413
-486.4299148 -54.97771846 1896.315951 0.8105493933 0.348264235 0.4708733413
359.2694232 183.9188567 2196.899673 -0.925563431 -0.2047622636 -0.3184411259
359.7845119 184.4896633 2195.171915 -0.925563431 -0.2047622636 -0.3184411259
362.4642275 188.6664993 2183.62097 -0.9375445004 -0.2238887279 -0.2662407695
362.1807258 188.3149561 2184.731844 -0.9375445004 -0.2238887279 -0.2662407695
-534.0095461 -49.01393967 2037.135968 0.9724211315 0.2292173893 0.04308748517
-533.8858564 -49.59679295 2039.801636 0.9724211315 0.2292173893 0.04308748517
-449.6392002 -134.0448098 2260.288749 0.6786616804 0.5570798199 -0.4786234404
-445.8392696 -134.1679528 2266.088422 0.6786616804 0.5570798199 -0.4786234404
-365.6804936 -131.2790493 2331.8332 0.3303664321 0.5502062652 -0.7668970507
-362.7651523 -130.6301931 2333.102032 0.3303664321 0.5502062652 -0.7668970507
-333.6520659 -134.4399444 2339.947128 0.1848009999 0.5692550215 -0.8011225318
-324.6527188 -132.3107309 2343.323591 0.1848009999 0.5692550215 -0.8011225318
-425.5557929 -132.8903046 2290.370451 0.5909345448 0.5523181891 -0.5879974334
-428.2938425 -133.2156267 2287.963221 0.5909345448 0.5523181891 -0.5879974334
-536.5422508 -26.80954023 2020.74301 0.9850846551 0.1181953921 0.1250522754
-536.748976 -24.4017082 2010.153013 0.9850846551 0.1181953921 0.1250522754
98.18888326 203.3205399 1850.48537 -0.309271224 -0.3968368293 0.8642174732
88.6763649 201.5001493 1845.075379 -0.309271224 -0.3968368293 0.8642174732
358.0459212 183.7804061 2200.434845 -0.9194459212 -0.204070011 -0.3361169866
353.9925631 178.7047695 2216.529171 -0.9194459212 -0.204070011 -0.3361169866
351.3266328 172.6486369 2226.442164 -0.9061162695 -0.1737893481 -0.3856819528
347.5431544 169.1585133 2236.126538 -0.9061162695 -0.1737893481 -0.3856819528
347.4092254 171.764751 2235.217307 -0.9054466248 -0.1868205364 -0.3811357983
344.4827789 169.0681588 2242.695358 -0.9054466248 -0.1868205364 -0.3811357983
364.5619478 193.3887469 2170.361316 -0.9480331021 -0.2474999659 -0.1999425023
365.6021398 195.3843339 2163.26553 -0.9480331021 -0.2474999659 -0.1999425023
367.3641194 210.5449276 2071.483016 -0.9483396152 -0.2900595193 0.1285202297
367.6512387 208.2358833 2081.761853 -0.9483396152 -0.2900595193 0.1285202297
90.73023928 206.4712413 1849.455672 -0.271978004 -0.412590336 0.8693659643
114.3196742 211.7327406 1859.674088 -0.271978004 -0.412590336 0.8693659643
-534.0668187 -40.03133152 2076.514859 0.9733259433 0.1813900822 -0.1404786321
-531.8150888 -41.56488536 2086.201434 0.9733259433 0.1813900822 -0.1404786321
-471.4682657 -45.21190273 1868.996002 0.7357411476 0.2994351564 0.6074730865
-467.9491185 -42.77186428 1863.438173 0.7357411476 0.2994351564 0.6074730865
315.2166868 146.8917456 2320.965168 -0.9269559719 -0.2443666536 -0.2846709762
316.628233 148.7809286 2314.839973 -0.9269559719 -0.2443666536 -0.2846709762
10.74798347 159.9735448 1809.182932 -0.2686768596 -0.2742727902 0.9233564759
-7.414056261 156.0170911 1800.911202 -0.2686768596 -0.2742727902 0.9233564759
-5.26282428 132.4354824 1796.113001 -0.2794330195 -0.156364747 0.947347483
-15.21846448 130.259254 1791.610773 -0.2794330195 -0.156364747 0.947347483
-223.0693345 -100.5127289 2365.68982 0.1157449413 0.5348267872 -0.8369966644
-228.8636426 -102.1767363 2364.770012 0.1157449413 0.5348267872 -0.8369966644
-208.3819519 -115.8011722 2359.329527 -0.04507946275 0.5841464674 -0.8103954261
-215.4216534 -117.779068 2358.024757 -0.04507946275 0.5841464674 -0.8103954261
119.9537193 44.11933924 2501.8822 -0.146081479 0.1564722873 -0.976819648
116.4639469 42.91875982 2502.177125 -0.146081479 0.1564722873 -0.976819648
104.7260589 36.28467113 2502.334064 -0.1034767051 0.184377492 -0.9773932228
107.9429921 37.33771888 2502.29184 -0.1034767051 0.184377492 -0.9773932228
-314.208363 -129.7305529 2347.159175 0.1325792209 0.5563541314 -0.8203004515
-304.4299906 -127.262422 2350.166372 0.1325792209 0.5563541314 -0.8203004515
-411.7600424 -135.3317918 2300.657316 0.5219557922 0.5645256252 -0.6394317551
-410.8733888 -135.4699622 2302.47886 0.5219557922 0.5645256252 -0.6394317551
-385.2242306 -134.1503717 2319.593705 0.4280851172 0.5645628769 -0.7056995752
-387.6446104 -134.7170748 2318.660143 0.4280851172 0.5645628769 -0.7056995752
-385.6483986 -143.9786267 2311.985995 0.418104058 0.6108706364 -0.6723288349
-390.1030419 -144.7389645 2309.058276 0.418104058 0.6108706364 -0.6723288349
-487.3809639 -109.756723 2220.682539 0.8448494589 0.4354137059 -0.310876658
-491.2162926 -107.6110089 2206.179137 0.8448494589 0.4354137059 -0.310876658
-513.2361727 -82.48454577 2143.880132 0.9475792181 0.3169639576 -0.04034197494
-513.0041395 -83.31484163 2147.754946 0.9475792181 0.3169639576 -0.04034197494
-510.6715988 -88.01102238 2156.230907 0.9377253788 0.339205082 -0.07490678346
-511.0333716 -87.76306651 2154.667908 0.9377253788 0.339205082 -0.07490678346
315.1118286 147.5844054 2320.707125 -0.9264316808 -0.2478299526 -0.2833807606
313.6889183 145.5731191 2327.339032 -0.9264316808 -0.2478299526 -0.2833807606
124.611454 218.1304879 1864.88806 -0.2320849863 -0.4226190349 0.8760877299
128.1554847 219.0452845 1865.891291 -0.2320849863 -0.4226190349 0.8760877299
133.7214001 221.7330124 1868.795388 -0.2599145631 -0.436057674 0.8615672491
156.0834118 226.9925564 1877.319011 -0.2599145631 -0.436057674 0.8615672491
63.99102575 176.8408739 1828.8508 -0.2481188986 -0.2888989307 0.9246482683
59.45020451 175.7319698 1827.295022 -0.2481188986 -0.2888989307 0.9246482683
81.35486714 188.964962 1837.515692 -0.2769395512 -0.3351991199 0.9005254217
69.75515627 186.1009117 1833.675369 -0.2769395512 -0.3351991199 0.9005254217
57.34353766 168.2206387 1824.567524 -0.2375855643 -0.2513422752 0.9382857562
43.52596549 164.7207856 1820.37033 -0.2375855643 -0.2513422752 0.9382857562
93.69162214 195.3713687 1844.239343 -0.3343475101 -0.3661929263 0.8683976527
93.66925577 195.3710618 1844.209621 -0.3343475101 -0.3661929263 0.8683976527
-81.37464533 -93.01409062 2421.514485 0.2036223238 0.6630757718 -0.720325253
-77.03621204 -92.10480262 2423.643592 0.2036223238 0.6630757718 -0.720325253
-68.1173743 -84.27058386 2433.105912 0.1729188767 0.6266039039 -0.7599122382
-70.89552262 -84.81042905 2431.560989 0.1729188767 0.6266039039 -0.7599122382
-84.24221493 -90.21879114 2423.219485 0.2067210611 0.6467035262 -0.7341940834
-81.9943928 -89.73964151 2424.288251 0.2067210611 0.6467035262 -0.7341940834
-44.14082644 -75.87953294 2443.800821 0.08341655965 0.5917850765 -0.8017681092
-50.21691089 -77.30681838 2441.477087 0.08341655965 0.5917850765 -0.8017681092
-528.3236885 -53.32877291 2091.937026 0.9558689418 0.24020952 -0.1691565918
-524.9421176 -55.4662668 2105.775624 0.9558689418 0.24020952 -0.1691565918
-527.9201098 -46.97959551 2099.155879 0.9707589027 0.1977761636 -0.1360578626
-525.7659086 -48.30571915 2107.819527 0.9707589027 0.1977761636 -0.1360578626
342.8403759 167.886858 2247.026293 -0.8972346099 -0.1809140325 -0.4027904762
342.7245127 167.7781583 2247.33065 -0.8972346099 -0.1809140325 -0.4027904762
-50.64123032 135.8621852 1786.550015 -0.3666325027 -0.252075616 0.8955660175
-47.93209071 136.4817147 1787.658213 -0.3666325027 -0.252075616 0.8955660175
-45.81895254 137.3956523 1789.044668 -0.3907438916 -0.2597429515 0.883092753
-50.07167968 136.5418282 1786.797155 -0.3907438916 -0.2597429515 0.883092753
-52.51393393 137.7194947 1786.199686 -0.3437232866 -0.2582645161 0.90285865
-46.09633673 139.1686593 1788.903679 -0.3437232866 -0.2582645161 0.90285865
46.83949313 161.8125243 1820.482132 -0.2541532024 -0.2368009686 0.9377267464
35.92807806 159.0529049 1817.15002 -0.2541532024 -0.2368009686 0.9377267464
39.6255366 161.3262 1818.783554 -0.2726404951 -0.2481674444 0.9295590782
31.41450842 159.4051637 1815.610161 -0.2726404951 -0.2481674444 0.9295590782
19.88035845 151.4723203 1809.690428 -0.2975074788 -0.2277875825 0.9271473008
36.38790514 155.3291913 1816.092517 -0.2975074788 -0.2277875825 0.9271473008
-164.5659988 -111.5138927 2369.368978 0.3725689843 0.708213784 -0.5996879089
-169.7537065 -111.5021155 2362.120176 0.3725689843 0.708213784 -0.5996879089
-162.2733141 -99.06850948 2380.464896 0.2988856913 0.6384512887 -0.7092582714
-155.0170479 -97.54961648 2384.034249 0.2988856913 0.6384512887 -0.7092582714
-508.5194537 -88.85147638 2171.454134 0.9269646533 0.343407352 -0.1510229191
-508.361074 -89.20617567 2173.191663 0.9269646533 0.343407352 -0.1510229191
-497.9137217 -96.37749108 2202.209369 0.8783366044 0.3792461169 -0.2910278203
-498.6354642 -96.37392864 2201.192643 0.8783366044 0.3792461169 -0.2910278203
239.9678425 89.33827923 2456.075641 -0.6213926695 -0.02088481247 -0.7832208979
240.0074792 89.3608012 2456.034268 -0.6213926695 -0.02088481247 -0.7832208979
213.7110927 91.84417085 2473.648517 -0.4902711402 -0.03350415435 -0.8709257608
213.7435366 91.86214761 2473.616613 -0.4902711402 -0.03350415435 -0.8709257608
311.5448938 141.2804236 2337.674132 -0.9269284226 -0.2411127831 -0.2875209996
311.2549671 140.8774418 2338.996198 -0.9269284226 -0.2411127831 -0.2875209996
162.589618 223.9570218 1877.519827 -0.2633998554 -0.413980607 0.8713441187
178.1578789 227.5343071 1883.814924 -0.2633998554 -0.413980607 0.8713441187
192.773607 225.9524772 1887.268318 -0.2994619098 -0.3972040628 0.8674972605
185.3702898 224.1789983 1884.584296 -0.2994619098 -0.3972040628 0.8674972605
78.34711129 178.6644836 1833.129676 -0.2619007719 -0.2836967277 0.9224555016
79.11848298 178.8570836 1833.375884 -0.2619007719 -0.2836967277 0.9224555016
89.34751486 189.9958845 1840.45653 -0.3127388056 -0.3393170403 0.8871631111
89.28608971 189.9811462 1840.434363 -0.3127388056 -0.3393170403 0.8871631111
-457.5613717 -15.94033493 1842.684365 0.7194188099 0.1866954878 0.6690152247
-464.684651 -20.22393056 1851.129746 0.7194188099 0.1866954878 0.6690152247
-516.84793 -73.57435123 2126.900184 0.9458647998 0.303371251 -0.1153501824
-519.1761572 -71.26596778 2113.791955 0.9458647998 0.303371251 -0.1153501824
222.9955373 204.6950682 1891.199285 -0.4407653712 -0.288259503 0.8500778473
231.0055395 206.1370617 1896.143567 -0.4407653712 -0.288259503 0.8500778473
209.0864544 216.1947634 1889.487214 -0.3810261468 -0.3484154939 0.8564027785
211.0476924 216.7262664 1889.934298 -0.3810261468 -0.3484154939 0.8564027785
15.18135901 166.2346612 1812.522291 -0.2908437373 -0.3055783727 0.9066596818
16.11165479 166.4572755 1812.86059 -0.2908437373 -0.3055783727 0.9066596818
19.65300565 157.8973833 1811.314591 -0.2963707148 -0.2599128976 0.9190264877
17.21705028 157.3241804 1810.387228 -0.2963707148 -0.2599128976 0.9190264877
-220.7608314 -126.7381689 2351.381883 -0.0531858789 0.6191297164 -0.7834855816
-213.8003702 -124.7757178 2352.642788 -0.0531858789 0.6191297164 -0.7834855816
72.41395642 10.62384837 2498.046848 -0.007420539396 0.2915715928 -0.9565202255
72.18156193 10.55543916 2498.017104 -0.007420539396 0.2915715928 -0.9565202255
101.7040656 25.77983675 2500.356729 -0.08836673853 0.2369016639 -0.9675065484
88.60319624 21.55783417 2500.244113 -0.08836673853 0.2369016639 -0.9675065484
-447.0341157 -137.4906175 2259.8736 0.665636258 0.5743088584 -0.4765476966
-450.4379627 -137.6207794 2255.707423 0.665636258 0.5743088584 -0.4765476966
-465.1103004 -128.292197 2244.088333 0.7334961413 0.5280910759 -0.4279056277
-464.0099393 -128.3772229 2245.979009 0.7334961413 0.5280910759 -0.4279056277
-115.1972247 -91.06058408 2411.61795 0.3095441851 0.6403248663 -0.7029697455
-118.3114557 -91.6336067 2409.748648 0.3095441851 0.6403248663 -0.7029697455
66.39631306 -10.0370866 2490.407808 0.01872349214 0.3937602475 -0.9190224689
66.95275563 -9.882291771 2490.517553 0.01872349214 0.3937602475 -0.9190224689
83.83205444 -21.8786598 2484.382253 -0.06845521475 0.4529681134 -0.8888946911
83.65381508 -21.95067804 2484.443097 -0.06845521475 0.4529681134 -0.8888946911
69.36039569 -24.80831062 2484.011465 -0.02726155374 0.4578744754 -0.8885987691
68.60482002 -25.0075964 2483.815783 -0.02726155374 0.4578744754 -0.8885987691
82.39399138 -12.53012975 2489.027523 -0.06215609629 0.405865372 -0.9118168234
76.3393042 -14.40648994 2488.655076 -0.06215609629 0.405865372 -0.9118168234
295.1896867 112.5908555 2390.98611 -0.8578361025 -0.1141635921 -0.5010827233
294.9151762 112.2308793 2392.145546 -0.8578361025 -0.1141635921 -0.5010827233
318.6969773 146.3091709 2309.106447 -0.9172738204 -0.2056360791 -0.3410609057
321.4863916 149.2603531 2300.348858 -0.9172738204 -0.2056360791 -0.3410609057
-454.0232346 -9.020824233 1837.283407 0.7017281243 0.1520979343 0.6960200126
-447.1344088 -5.09799513 1830.056427 0.7017281243 0.1520979343 0.6960200126
-431.7764888 22.47426981 1812.434795 0.6926358534 0.05130205659 0.7194606824
-427.0369049 25.17487564 1807.45546 0.6926358534 0.05130205659 0.7194606824
106.9066455 201.7208938 1853.171324 -0.2349128607 -0.3625311016 0.9018797859
120.3353703 204.8877308 1858.253937 -0.2349128607 -0.3625311016 0.9018797859
115.6953138 215.8414221 1861.69279 -0.187504285 -0.4111737058 0.8920640822
110.8536551 214.6162516 1860.217078 -0.187504285 -0.4111737058 0.8920640822
-146.4836321 -110.7836535 2379.269097 0.3146158631 0.7104804054 -0.6294715658
-152.9753746 -111.967217 2375.325709 0.3146158631 0.7104804054 -0.6294715658
-114.4163668 -120.23492 2381.297634 0.1943688468 0.7648069418 -0.6142402569
-117.7076064 -120.8892012 2379.530424 0.1943688468 0.7648069418 -0.6142402569
-262.1466078 -130.7424133 2350.316487 0.002613328379 0.5959520324 -0.8030157816
-255.4311193 -128.9450304 2351.9438 0.002613328379 0.5959520324 -0.8030157816
308.8557454 134.1917134 2351.275558 -0.9190314563 -0.2130490131 -0.3316493637
309.6755738 135.2646878 2347.821871 -0.9190314563 -0.2130490131 -0.3316493637
169.4779734 66.7899781 2492.260539 -0.3386591775 0.06332060719 -0.9387760448
183.3280141 72.46019651 2487.215762 -0.3386591775 0.06332060719 -0.9387760448
141.1201853 55.16838765 2499.401468 -0.2177430541 0.1134697515 -0.9693877335
145.2947487 56.76014925 2498.382877 -0.2177430541 0.1134697515 -0.9693877335
193.0698234 86.63219011 2483.867858 -0.3870647936 -0.007444250644 -0.9220224665
193.0091373 86.61316808 2483.865047 -0.3870647936 -0.007444250644 -0.9220224665
-509.7749138 -91.88843813 2126.628364 0.9302729234 0.3639834194 0.04591686396
-511.2172346 -89.32206192 2113.645455 0.9302729234 0.3639834194 0.04591686396
-506.1337084 -90.19431924 2080.139683 0.9048552924 0.368344706 0.2134457245
-506.0237875 -90.15116943 2080.107569 0.9048552924 0.368344706 0.2134457245
-96.84127252 -111.7596907 2386.678661 -0.1110084014 0.6729675537 -0.7312946099
-101.0253262 -112.7614711 2385.159546 -0.1110084014 0.6729675537 -0.7312946099
-242.0061644 -100.6238072 2361.829894 0.2233182889 0.5383666029 -0.8125825144
-244.584004 -101.2206921 2360.80699 0.2233182889 0.5383666029 -0.8125825144
-515.42603 -80.09898626 2119.12228 0.9387552998 0.3359944262 -0.0764606614
-514.9067306 -80.66593341 2122.268829 0.9387552998 0.3359944262 -0.0764606614
-523.7571425 -62.05268001 2096.097892 0.9607150722 0.2665109679 -0.077449687
-522.8544051 -63.26969238 2102.558134 0.9607150722 0.2665109679 -0.077449687
-517.80506 -76.64342789 2109.895648 0.9390093139 0.3302585516 -0.0958686472
-518.5132535 -76.01920912 2106.241926 0.9390093139 0.3302585516 -0.0958686472
-434.063238 24.22387818 1814.555968 0.7040695993 0.04255401473 0.7088548195
-439.282996 21.33119929 1819.690902 0.7040695993 0.04255401473 0.7088548195
-448.6743714 12.36635371 1828.901454 0.7094279376 0.06477619012 0.7017948749
-440.3546637 16.88676421 1821.102891 0.7094279376 0.06477619012 0.7017948749
-34.6619099 -63.04397771 2453.192062 0.03602197697 0.5276073003 -0.8487243097
-15.79927237 -57.67883646 2456.408139 0.03602197697 0.5276073003 -0.8487243097
249.9296444 98.84341306 2447.085618 -0.6700129404 -0.06779684017 -0.739247082
249.8043964 98.78477268 2447.162748 -0.6700129404 -0.06779684017 -0.739247082
256.2873697 101.0253885 2440.784483 -0.702792122 -0.07920774914 -0.7069719696
256.3602327 101.0669545 2440.707725 -0.702792122 -0.07920774914 -0.7069719696
146.9143677 234.9493979 1879.01607 -0.2140693428 -0.4758418815 0.853081954
150.2676185 235.7439808 1880.268974 -0.2140693428 -0.4758418815 0.853081954
152.4717748 233.0446051 1879.318798 -0.2128106393 -0.4594185233 0.8623492635
150.0158779 232.4593091 1878.415512 -0.2128106393 -0.4594185233 0.8623492635
304.2059207 133.8185949 2364.270972 -0.9019696504 -0.2188977224 -0.3722022794
305.4433843 135.3614552 2359.386142 -0.9019696504 -0.2188977224 -0.3722022794
-132.0793343 -125.4163931 2367.751335 0.2425943742 0.7836441036 -0.5718827577
-127.3527119 -124.6566336 2371.058924 0.2425943742 0.7836441036 -0.5718827577
-114.1079632 -102.2557855 2401.200021 0.2885267225 0.6934357602 -0.6602266103
-123.8740814 -104.1681053 2395.831504 0.2885267225 0.6934357602 -0.6602266103
-115.8057201 -114.9799204 2387.141865 0.2013156129 0.7385319437 -0.6434614146
-109.789689 -113.7684681 2390.305824 0.2013156129 0.7385319437 -0.6434614146
-119.8273654 -106.9072906 2394.400799 0.2515039945 0.7042260562 -0.6639362941
-117.1635661 -106.3917258 2395.89095 0.2515039945 0.7042260562 -0.6639362941
-121.6030674 -101.3341121 2399.694071 0.2771716527 0.6792657941 -0.6795394439
-122.2970977 -101.3996733 2399.011579 0.2771716527 0.6792657941 -0.6795394439
-512.5519211 -81.12015223 2096.207935 0.937174279 0.3238266838 0.1297715288
-512.8433252 -80.59502098 2093.556542 0.937174279 0.3238266838 0.1297715288
-508.1840314 -88.87428161 2087.835068 0.9156565119 0.3619602669 0.17480823
-508.2483677 -88.74686884 2087.200595 0.9156565119 0.3619602669 0.17480823
-515.162916 -78.85194087 2124.141742 0.9487722327 0.3151112833 -0.02315447089
-515.6692152 -78.1403214 2120.394176 0.9487722327 0.3151112833 -0.02315447089
341.1462188 162.7741587 2252.72984 -0.890096993 -0.1565459567 -0.4280428794
341.2969893 162.9045431 2252.381131 -0.890096993 -0.1565459567 -0.4280428794
340.8553465 161.1415378 2253.907624 -0.888642631 -0.1483828523 -0.4339317958
334.5856253 155.7697343 2268.193849 -0.888642631 -0.1483828523 -0.4339317958
331.8895492 152.9260616 2274.672705 -0.8897787175 -0.1469019999 -0.4321037332
334.8128426 155.4735639 2267.828237 -0.8897787175 -0.1469019999 -0.4321037332
325.6287024 147.4934533 2290.280332 -0.9023152761 -0.1595910932 -0.4004470321
330.3019898 151.8260797 2278.225565 -0.9023152761 -0.1595910932 -0.4004470321
323.8541738 146.1572365 2295.456272 -0.9088716926 -0.1683704601 -0.381580443
326.9399857 149.2493267 2286.507014 -0.9088716926 -0.1683704601 -0.381580443
-96.24636531 -110.4366995 2387.794378 -0.1139829375 0.6663525975 -0.7368731952
-86.81123949 -106.3027588 2383.197266 -0.1139829375 0.6663525975 -0.7368731952
-134.0378429 -108.3526247 2380.891646 0.1577083356 0.6848718647 -0.7113920226
-141.1494941 -110.0066122 2378.101032 0.1577083356 0.6848718647 -0.7113920226
-268.876462 -121.2824383 2356.766116 0.03626259929 0.5486521575 -0.8352639307
-278.5635854 -124.0044866 2354.972051 0.03626259929 0.5486521575 -0.8352639307
-235.9623726 -118.8805394 2357.973016 -0.03795988562 0.5623687364 -0.826014801
-244.0597507 -121.2315578 2356.797222 -0.03795988562 0.5623687364 -0.826014801
-128.6119063 -116.3577224 2384.117755 0.001931921281 0.6837025499 -0.7297582414
-136.9141057 -118.5740254 2382.081304 0.001931921281 0.6837025499 -0.7297582414
-120.8809168 -116.1468836 2383.663577 -0.01173044852 0.6898946159 -0.7238147661
-125.8794324 -117.5961356 2382.92906 -0.01173044852 0.6898946159 -0.7238147661
-128.5539414 -127.2728173 2373.183763 -0.03986890055 0.7271965093 -0.6852705361
-137.3663194 -129.5851239 2370.850195 -0.03986890055 0.7271965093 -0.6852705361
-15.82346294 -34.18458737 2470.591421 0.1488712979 0.4388614755 -0.8861365256
-6.925738362 -31.8766292 2473.062022 0.1488712979 0.4388614755 -0.8861365256
46.41962351 -20.98420551 2484.940594 0.052974709 0.4295080436 -0.9015079149
37.44296964 -23.53543103 2483.401415 0.052974709 0.4295080436 -0.9015079149
55.49125037 -14.34902029 2488.835884 0.03830629447 0.4045815949 -0.9136992727
49.35330642 -15.99891575 2487.378865 0.03830629447 0.4045815949 -0.9136992727
-139.8955639 -129.2046253 2371.376249 -0.02722267827 0.7252940165 -0.6879008035
-142.2081251 -129.8060951 2370.741061 -0.02722267827 0.7252940165 -0.6879008035
367.5036288 214.1064106 2106.423837 -0.9476015657 -0.3194121557 0.005210313031
367.6404387 213.8188722 2107.844053 -0.9476015657 -0.3194121557 0.005210313031
-515.7025432 -76.83899898 2128.844832 0.9489388724 0.3086046712 -0.06540774748
-516.6283158 -75.55970431 2122.086119 0.9489388724 0.3086046712 -0.06540774748
-515.0899268 -80.89830955 2118.541314 0.9396712806 0.3371563068 -0.05782308506
-514.7747974 -81.27003143 2120.569187 0.9396712806 0.3371563068 -0.05782308506
331.6528567 153.6981163 2274.893567 -0.8885952554 -0.1507622733 -0.4332080435
328.9320927 151.3238206 2281.277908 -0.8885952554 -0.1507622733 -0.4332080435
329.6005474 152.5077016 2279.465138 -0.8919375289 -0.1566816783 -0.4241441926
329.1284373 152.0882912 2280.604707 -0.8919375289 -0.1566816783 -0.4241441926
330.6370619 152.8738015 2277.050521 -0.8994806522 -0.16060923 -0.4063732664
329.735065 152.0297071 2279.410812 -0.8994806522 -0.16060923 -0.4063732664
323.3083391 144.6936172 2297.564254 -0.9151128849 -0.1701766155 -0.3655247288
325.1024123 146.5184676 2292.245129 -0.9151128849 -0.1701766155 -0.3655247288
324.6364592 147.2571665 2292.835788 -0.9217534854 -0.182994362 -0.3418824003
322.3823246 144.7320097 2300.513157 -0.9217534854 -0.182994362 -0.3418824003
-84.12418495 -89.04329641 2424.279555 0.2061309112 0.6408260526 -0.7394944339
-86.23342528 -89.45427131 2423.111363 0.2061309112 0.6408260526 -0.7394944339
-103.2177162 -98.96181755 2408.569163 0.2613819582 0.6824406131 -0.6826084394
-97.28363468 -97.77718341 2411.734164 0.2613819582 0.6824406131 -0.6826084394
-108.4836354 -92.46273266 2413.121675 0.2759762387 0.6473356092 -0.7104883706
-106.1365723 -91.94081677 2414.145149 0.2759762387 0.6473356092 -0.7104883706
24.60143138 -13.64871269 2486.643031 0.1139883341 0.37917029 -0.9182791247
24.15787378 -13.76524339 2486.526192 0.1139883341 0.37917029 -0.9182791247
32.02212759 -13.76182401 2487.349723 0.08007891926 0.3806400085 -0.9212494508
31.38331435 -13.94265641 2487.237097 0.08007891926 0.3806400085 -0.9212494508
273.6632341 109.5832672 2422.455138 -0.7576839705 -0.1048909723 -0.6441373183
273.2807748 109.3360631 2422.982232 -0.7576839705 -0.1048909723 -0.6441373183
289.664874 115.27823 2399.222475 -0.8342555881 -0.1304395767 -0.5357267312
288.9775576 114.6929881 2400.773021 -0.8342555881 -0.1304395767 -0.5357267312
288.103092 100.3475658 2404.782249 -0.8237756816 -0.05474702461 -0.5642662401
287.5688927 100.1397196 2404.930377 -0.8237756816 -0.05474702461 -0.5642662401
247.2978483 98.2257048 2449.483426 -0.65685396 -0.0647082989 -0.7512361222
253.1147727 101.2995284 2444.401993 -0.65685396 -0.0647082989 -0.7512361222
-146.7247997 -136.7917729 2363.090169 -0.00463930531 0.7602224053 -0.6496463433
-151.8645513 -138.2323283 2362.122462 -0.00463930531 0.7602224053 -0.6496463433
-189.134546 -138.9878891 2358.09645 0.1589224154 0.7574769259 -0.6332237935
-197.5254511 -140.3553587 2352.304742 0.1589224154 0.7574769259 -0.6332237935
314.2682112 143.3664926 2327.331609 -0.9308155424 -0.23884291 -0.2766522915
314.5656906 143.7757106 2325.993338 -0.9308155424 -0.23884291 -0.2766522915
-245.7011965 -131.0453282 2350.097663 -0.04603628552 0.6064535214 -0.7937851011
-242.4444707 -130.0485148 2350.351282 -0.04603628552 0.6064535214 -0.7937851011
311.3129266 142.3181868 2337.541718 -0.9257685865 -0.2463015991 -0.2868589313
313.2588201 144.8582304 2329.372937 -0.9257685865 -0.2463015991 -0.2868589313
319.9923628 146.3743216 2305.897549 -0.9315250008 -0.2160753571 -0.2925279696
318.4874843 144.4811641 2311.910243 -0.9315250008 -0.2160753571 -0.2925279696
-295.7536283 -126.9986326 2351.51242 0.08919740937 0.5550351847 -0.8270306923
-289.1505474 -125.281092 2353.325404 0.08919740937 0.5550351847 -0.8270306923
25.31615224 -31.48308338 2478.410738 0.08797165038 0.4622883297 -0.882355081
19.99635608 -32.9031091 2477.105357 0.08797165038 0.4622883297 -0.882355081
24.11228846 -18.61722749 2484.441148 0.1142162607 0.4034302105 -0.907853904
20.06723017 -19.71145954 2483.510503 0.1142162607 0.4034302105 -0.907853904
-250.5552497 -139.8126995 2329.184916 0.3814562526 0.7471708276 -0.5442672888
-253.4125343 -140.0054247 2326.044853 0.3814562526 0.7471708276 -0.5442672888
-212.1219726 -147.2527554 2338.622495 0.231905023 0.7919639089 -0.5648125594
-213.341436 -147.4616422 2337.824211 0.231905023 0.7919639089 -0.5648125594
-163.8894361 -134.7283067 2365.657001 0.05548511871 0.7427022972 -0.6673190386
-168.4470867 -136.0329634 2364.915499 0.05548511871 0.7427022972 -0.6673190386
298.718718 133.4552559 2376.977828 -0.8754812587 -0.2184855938 -0.4310413101
298.9082424 133.7361692 2376.038778 -0.8754812587 -0.2184855938 -0.4310413101
-425.613784 24.89613268 1806.118792 0.6855202488 0.05269577139 0.7261440244
-412.3854755 32.21198066 1793.169633 0.6855202488 0.05269577139 0.7261440244
-409.0419302 36.89626739 1789.667343 0.6878481655 0.03986650586 0.7247589688
-407.0794501 38.05535411 1787.430711 0.6878481655 0.03986650586 0.7247589688
-411.2173545 22.12354236 1793.154073 0.6796796438 0.1031379629 0.7262218273
-407.4082258 24.24197598 1789.374771 0.6796796438 0.1031379629 0.7262218273
-29.02014063 -20.07323502 2472.881017 0.3046091768 0.3906547731 -0.8686783626
-28.65869342 -19.98380916 2472.999903 0.3046091768 0.3906547731 -0.8686783626
-15.95578525 -31.69347495 2471.39772 0.1940215323 0.4379457043 -0.8778150176
-8.484747756 -29.90168505 2474.097357 0.1940215323 0.4379457043 -0.8778150176
-18.53487848 -16.99255734 2477.520777 0.2442721859 0.3734000657 -0.8949321148
-16.98581093 -16.60630162 2478.017453 0.2442721859 0.3734000657 -0.8949321148
-39.75569278 -13.0453539 2471.692651 0.3581215952 0.3555953271 -0.8633081063
-39.72262432 -13.06134582 2471.806966 0.3581215952 0.3555953271 -0.8633081063
-0.7636793162 -26.57560955 2477.397001 0.1651341062 0.423613775 -0.8906638516
2.138881804 -25.80721115 2478.136576 0.1651341062 0.423613775 -0.8906638516
7.965138694 -33.71847387 2475.05472 0.1481277373 0.4663651535 -0.872101896
5.540155586 -34.35748684 2474.424185 0.1481277373 0.4663651535 -0.872101896
-223.9819233 -140.1721273 2342.781606 0.2763565192 0.7541186996 -0.5957617487
-227.0131573 -140.6855851 2340.772592 0.2763565192 0.7541186996 -0.5957617487
-223.6569539 -144.7317252 2336.908907 0.2834826124 0.7783143239 -0.560236041
-225.4071419 -145.0112522 2335.676465 0.2834826124 0.7783143239 -0.560236041
-235.7001593 -142.8315777 2334.277356 0.3071808005 0.7622652186 -0.5697294905
-233.1780136 -142.3148889 2335.56614 0.3071808005 0.7622652186 -0.5697294905
-22.38200564 -45.37878107 2463.80028 0.1035303437 0.4746141767 -0.8740840069
-10.40502314 -42.23600408 2466.971425 0.1035303437 0.4746141767 -0.8740840069
-28.62812451 -55.3559324 2456.806532 0.1001662377 0.51599278 -0.8507162722
-21.70918444 -53.65450173 2459.126733 0.1001662377 0.51599278 -0.8507162722
-14.24734251 -43.53453781 2465.910151 0.1409906957 0.4856112277 -0.8627301776
-17.89709355 -44.43541426 2464.700659 0.1409906957 0.4856112277 -0.8627301776
-260.8151196 -109.1968923 2350.09915 0.3372590032 0.5840416665 -0.7383438877
-264.7943072 -109.7588199 2346.982169 0.3372590032 0.5840416665 -0.7383438877
319.4830511 150.360593 2304.252015 -0.921204189 -0.2258931896 -0.3167887452
317.9282005 148.3378881 2310.749704 -0.921204189 -0.2258931896 -0.3167887452
318.8729545 146.4441622 2309.132652 -0.9334523519 -0.2258903478 -0.2786400143
317.927509 145.0856675 2313.633781 -0.9334523519 -0.2258903478 -0.2786400143
-189.6299003 139.1663251 1730.869076 -0.179220615 -0.3716960602 0.9108907783
-190.4705779 138.9954262 1730.433839 -0.179220615 -0.3716960602 0.9108907783
-217.0598838 138.3452754 1726.912585 -0.04627408558 -0.3684453058 0.9284970466
-218.9866292 137.7570525 1726.756068 -0.04627408558 -0.3684453058 0.9284970466
-361.7205031 91.97607643 1755.092908 0.5688506226 -0.1754005948 0.8035195085
-368.6407661 88.73892622 1759.342237 0.5688506226 -0.1754005948 0.8035195085
-380.9116598 81.24941238 1766.880843 0.6127375738 -0.1461480302 0.7766552768
-377.4181563 82.8884133 1764.715083 0.6127375738 -0.1461480302 0.7766552768
-404.6670962 58.00593493 1785.450361 0.6757863961 -0.05988639823 0.734660715
-393.5214243 63.99708598 1775.279756 0.6757863961 -0.05988639823 0.734660715
-226.2896723 -119.7538804 2356.41276 0.04445913926 0.6039100084 -0.79581159
-214.6064822 -115.9933806 2356.532997 0.04445913926 0.6039100084 -0.79581159
-253.8096648 -127.7809604 2339.776505 0.3566639347 0.6830710806 -0.6373419306
-255.9180014 -128.1024809 2338.226791 0.3566639347 0.6830710806 -0.6373419306
-259.5654443 -133.3510033 2330.403166 0.4122208026 0.7138987202 -0.5660588549
-264.9210384 -133.9464883 2325.51989 0.4122208026 0.7138987202 -0.5660588549
-234.5949101 -123.9623849 2354.326272 -0.04479719824 0.587777964 -0.8077810818
-228.9178584 -122.3370922 2355.249038 -0.04479719824 0.587777964 -0.8077810818
-110.08843 142.1699039 1762.01871 -0.4266200575 -0.3558167148 0.8314985219
-81.07683602 147.710497 1778.566609 -0.4266200575 -0.3558167148 0.8314985219
-48.76597023 142.4940469 1789.247738 -0.3972724388 -0.2895040447 0.8708398346
-56.15276181 140.9887577 1785.439059 -0.3972724388 -0.2895040447 0.8708398346
-55.4377682 161.3173022 1793.91749 -0.4008474069 -0.391146767 0.8284476827
-86.23136614 154.7765075 1779.176777 -0.4008474069 -0.391146767 0.8284476827
-264.0353578 -121.3894685 2340.424715 0.3972507168 0.6495060182 -0.6483315512
-266.9676619 -121.70773 2337.717727 0.3972507168 0.6495060182 -0.6483315512
365.1552501 199.5025299 2159.933354 -0.9457986537 -0.2680909458 -0.183281618
367.134499 203.1098415 2147.244 -0.9457986537 -0.2680909458 -0.183281618
368.7177734 206.0346855 2131.810418 -0.9529882389 -0.2804912221 -0.1146215114
368.572416 205.5898968 2133.511979 -0.9529882389 -0.2804912221 -0.1146215114
-110.7714312 149.3277964 1764.911917 -0.4232050515 -0.3916061775 0.8170324878
-114.4018805 148.769335 1762.264008 -0.4232050515 -0.3916061775 0.8170324878
-307.5571573 113.2610245 1733.212865 0.31878672 -0.2738093961 0.9074158042
-310.5160215 112.1873393 1733.701491 0.31878672 -0.2738093961 0.9074158042
-342.2847722 96.41126988 1743.926037 0.4716719679 -0.197576562 0.8593538601
-341.0930711 96.94077247 1743.31388 0.4716719679 -0.197576562 0.8593538601
-291.5598951 -114.7490662 2326.627619 0.5202118827 0.6147126987 -0.5928810126
-294.956145 -115.1004251 2323.41849 0.5202118827 0.6147126987 -0.5928810126
-284.9388198 -110.1720685 2335.625615 0.4578775041 0.5889175478 -0.6659762106
-282.4892693 -109.9413949 2338.037529 0.4578775041 0.5889175478 -0.6659762106
-230.1819092 128.8227296 1723.238516 0.009702314618 -0.3237736912 0.946084807
-234.0137 127.7565568 1722.483733 0.009702314618 -0.3237736912 0.946084807
-172.9940449 125.988715 1730.003219 -0.2623998919 -0.3058080096 0.9152200599
-164.1496766 127.9945585 1733.692537 -0.2623998919 -0.3058080096 0.9152200599
-150.8151919 128.6690186 1738.285553 -0.3290723154 -0.3091803102 0.8922549787
-142.6244163 130.6469655 1741.187323 -0.3290723154 -0.3091803102 0.8922549787
-117.7326193 134.2617888 1754.450026 -0.4065513578 -0.3190684466 0.8561024003
-126.0030318 132.8490368 1749.019276 -0.4065513578 -0.3190684466 0.8561024003
-131.9188151 123.4316592 1743.112817 -0.3826003216 -0.2731037788 0.8826275091
-130.7932391 123.6561033 1743.714255 -0.3826003216 -0.2731037788 0.8826275091
-254.368724 122.0864676 1721.932637 0.1114774348 -0.2954232455 0.9488402856
-255.8436027 121.4496277 1722.611158 0.1114774348 -0.2954232455 0.9488402856
-293.7048418 115.68188 1729.656509 0.2495251428 -0.2859136735 0.9251975867
-283.4531443 119.5477133 1727.339698 0.2495251428 -0.2859136735 0.9251975867
280.098627 208.8029023 1930.683654 -0.6123315945 -0.2911043901 0.7350566322
278.4995337 208.6300099 1929.204578 -0.6123315945 -0.2911043901 0.7350566322
258.5826651 202.194046 1912.28988 -0.555607729 -0.265417915 0.7879424991
267.1547606 203.4927149 1918.627405 -0.555607729 -0.265417915 0.7879424991
252.8904966 200.1179701 1907.758422 -0.5271468865 -0.2550375354 0.8105997875
248.2818426 199.4926682 1904.039179 -0.5271468865 -0.2550375354 0.8105997875
346.9410147 207.2549866 2010.769239 -0.8762628942 -0.2748578642 0.3957480193
352.9487752 207.5045965 2018.037458 -0.8762628942 -0.2748578642 0.3957480193
325.6813476 211.9107347 1977.088148 -0.7699645585 -0.2981366045 0.5641534753
314.2602342 210.4409459 1967.529581 -0.7699645585 -0.2981366045 0.5641534753
291.5241617 200.8552219 1937.889483 -0.6694592682 -0.251365988 0.6990274875
294.1591761 201.0868226 1940.554778 -0.6694592682 -0.251365988 0.6990274875
-19.40431662 111.568097 1788.362869 -0.2613722087 -0.06373273661 0.9631317183
-18.83062663 111.7328519 1788.453926 -0.2613722087 -0.06373273661 0.9631317183
-41.7081454 116.9649729 1786.057235 -0.2630428335 -0.1232662436 0.9568771608
-34.48919967 118.6518954 1788.855801 -0.2630428335 -0.1232662436 0.9568771608
-27.40194388 122.7853952 1787.429667 -0.2213840725 -0.1198192278 0.9677977294
-42.82095189 117.9624922 1786.671687 -0.2213840725 -0.1198192278 0.9677977294
-41.6428492 138.4004691 1790.079279 -0.2633693145 -0.2304437243 0.9367669369
-50.93544455 136.0825448 1787.103404 -0.2633693145 -0.2304437243 0.9367669369
-50.37918876 145.0867526 1789.11395 -0.3223090265 -0.2878549825 0.9018072968
-39.14750217 147.5647965 1794.095332 -0.3223090265 -0.2878549825 0.9018072968
