# .PCD v0.7 - Point Cloud Data file format
VERSION 0.7
FIELDS x y z normal_x normal_y normal_z
SIZE 4 4 4 4 4 4
TYPE F F F F F F
COUNT 1 1 1 1 1 1
WIDTH 422
HEIGHT 1
VIEWPOINT 0 0 0 1 0 0 0
POINTS 422
DATA ascii
-527.2649845 7.985140736 1980.800367 0.9495865459 0.136603854 0.2821786293
-527.1265528 10.18090307 1980.735078 0.9495865459 0.136603854 0.2821786293
-528.3292633 -15.84722499 1976.008523 0.9448101617 0.1047172649 0.3104320421
-527.5974236 -11.61989905 1976.042356 0.9448101617 0.1047172649 0.3104320421
-488.0908831 208.1861606 1992.001174 0.8446330579 -0.4797343705 0.2375919427
-482.1440308 219.8158428 1993.442781 0.8446330579 -0.4797343705 0.2375919427
-425.3873409 295.0206683 2012.745551 0.6763154328 -0.7158921644 0.173481539
-436.0165901 283.6776085 2009.683955 0.6763154328 -0.7158921644 0.173481539
-534.0006102 7.895711723 2017.254855 0.9839568332 0.1480298107 0.09957974499
-534.1948896 8.291568083 2017.167924 0.9839568332 0.1480298107 0.09957974499
-130.618195 394.6411482 2062.451746 0.139507761 -0.9623514326 0.2332751697
-132.7928776 394.0570902 2061.736187 0.139507761 -0.9623514326 0.2332751697
-141.9387631 391.0872555 2056.738617 0.1720027239 -0.9518015515 0.2539465879
-139.2918702 391.947114 2057.601903 0.1720027239 -0.9518015515 0.2539465879
-83.52945164 400.5852901 2075.128848 0.05179624365 -0.9742096021 0.2196196721
-105.1155751 397.9141612 2067.865607 0.05179624365 -0.9742096021 0.2196196721
-120.0789051 397.0227969 2067.498185 0.08681131146 -0.974259676 0.2080429761
-112.1185887 397.924176 2070.180946 0.08681131146 -0.974259676 0.2080429761
-532.3314416 40.25235539 1992.999643 0.9749188317 -0.0247322193 0.2211822529
-533.6191576 14.26999778 1993.892314 0.9749188317 -0.0247322193 0.2211822529
-534.4525909 -53.79771307 2029.941461 0.9724211315 0.2292173893 0.04308748517
-534.5010634 -57.05960321 2030.092335 0.9724211315 0.2292173893 0.04308748517
-383.2685217 325.8943613 2014.92154 0.4675881018 -0.8687570169 0.1631643731
-372.4364217 332.9528822 2018.272682 0.4675881018 -0.8687570169 0.1631643731
-405.1090901 312.1375671 2014.519311 0.5749241788 -0.8014766583 0.164612742
-404.735737 312.4382895 2014.631866 0.5749241788 -0.8014766583 0.164612742
-504.701538 169.1267129 1987.944609 0.8943707305 -0.3703615242 0.2508651785
-498.6920221 184.8773301 1989.196097 0.8943707305 -0.3703615242 0.2508651785
-536.9852956 -31.59331363 2013.548503 0.9850846551 0.1181953921 0.1250522754
-536.384162 -18.54285044 2013.084476 0.9850846551 0.1181953921 0.1250522754
-277.6649634 359.529668 2020.83039 0.1074652388 -0.9762597234 0.188064284
-288.3239931 357.8442348 2017.262684 0.1074652388 -0.9762597234 0.188064284
-222.2467672 363.163854 2035.033444 -0.02053029807 -0.9856223543 0.1677113044
-229.5231625 362.9357527 2032.550581 -0.02053029807 -0.9856223543 0.1677113044
-230.7313373 363.3343062 2034.761693 -0.01779587791 -0.987671632 0.1555250917
-230.0700465 363.3456082 2034.987823 -0.01779587791 -0.987671632 0.1555250917
-33.71825934 -254.125948 2174.85976 -0.1863956245 0.9605144242 -0.2065640631
-35.64493388 -254.7035978 2174.228897 -0.1863956245 0.9605144242 -0.2065640631
-35.66745548 -258.760202 2144.465993 -0.1862830165 0.9807974452 -0.05774953972
-37.17647443 -259.1277996 2143.967529 -0.1862830165 0.9807974452 -0.05774953972
-534.6820258 -47.49414179 2066.805558 0.9733259433 0.1813900822 -0.1404786321
-534.4385716 -48.66827284 2066.949311 0.9733259433 0.1813900822 -0.1404786321
-145.0932062 390.5201477 2056.850887 0.1877749397 -0.9489660123 0.2533852395
-149.4872151 388.8450576 2055.430496 0.1877749397 -0.9489660123 0.2533852395
-163.3374337 383.4882901 2048.730579 0.1888200461 -0.9456622127 0.2647073282
-149.6962363 388.1842977 2053.166078 0.1888200461 -0.9456622127 0.2647073282
302.8402882 273.9931476 2266.321252 -0.8376458865 -0.3960477345 -0.3761589569
299.7704383 282.7357363 2264.819898 -0.8376458865 -0.3960477345 -0.3761589569
307.8701355 273.2705283 2254.273741 -0.8479121462 -0.4308826611 -0.3088448229
304.8935402 280.9601329 2252.858425 -0.8479121462 -0.4308826611 -0.3088448229
278.2248067 345.5302879 2241.470537 -0.7682715162 -0.5759062071 -0.2794475228
278.6294734 344.4064568 2241.666975 -0.7682715162 -0.5759062071 -0.2794475228
230.5916416 399.0661023 2202.729598 -0.5301056908 -0.8435852794 -0.08574283065
230.6161052 399.2289851 2202.729621 -0.5301056908 -0.8435852794 -0.08574283065
308.0761658 275.162199 2252.440062 -0.8791745244 -0.3581800482 -0.3142597791
303.4291757 288.0898323 2250.183121 -0.8791745244 -0.3581800482 -0.3142597791
305.5035064 277.3360899 2255.460846 -0.8895461777 -0.3044113362 -0.3406484054
304.8609524 284.02639 2254.897026 -0.8895461777 -0.3044113362 -0.3406484054
-512.6454673 148.5764397 1990.675166 0.9330612087 -0.2705950838 0.2370128297
-517.9258764 128.3698403 1989.902444 0.9330612087 -0.2705950838 0.2370128297
-342.8864284 345.1108115 2014.219555 0.3198381349 -0.9295466636 0.1834300078
-342.4044427 345.2618789 2014.377038 0.3198381349 -0.9295466636 0.1834300078
-446.7552477 272.3091113 2008.19143 0.7300087206 -0.6590496781 0.1809441616
-451.6976164 266.6661036 2006.786789 0.7300087206 -0.6590496781 0.1809441616
325.5823244 163.9188913 2283.992513 -0.8915693624 -0.1463714117 -0.4285784432
325.2639442 166.7021155 2283.74045 -0.8915693624 -0.1463714117 -0.4285784432
324.0894582 -101.8962925 2255.946799 -0.8127968372 0.5349444339 -0.2306420476
322.1203126 -105.0839129 2255.435392 -0.8127968372 0.5349444339 -0.2306420476
149.3472666 -216.2066759 2213.586934 -0.1365527383 0.9873628744 -0.08042328023
158.6847551 -215.2024121 2216.73655 -0.1365527383 0.9873628744 -0.08042328023
166.3226035 -214.4809635 2209.251691 -0.1708088202 0.984422026 -0.04168478942
165.5359715 -214.6142424 2208.988852 -0.1708088202 0.984422026 -0.04168478942
183.5903702 -209.9194669 2220.069424 -0.2571476534 0.961614543 -0.09577345715
187.3332665 -208.7098392 2221.290494 -0.2571476534 0.961614543 -0.09577345715
-42.91214392 -253.5777084 2183.726995 -0.1404262016 0.9577732262 -0.2509002374
-41.65062998 -253.2186889 2184.141047 -0.1404262016 0.9577732262 -0.2509002374
-322.7277072 350.4944174 2012.29318 0.2214544571 -0.9557093563 0.1938492965
-311.1218368 353.7341614 2016.105682 0.2214544571 -0.9557093563 0.1938492965
-530.9471713 -60.4321604 2072.684903 0.9558689418 0.24020952 -0.1691565918
-530.700982 -61.48204858 2072.823214 0.9558689418 0.24020952 -0.1691565918
-56.57247233 404.2754809 2088.713307 0.03172614379 -0.9811868143 0.1904360453
-40.98489808 405.9244378 2093.972545 0.03172614379 -0.9811868143 0.1904360453
-194.2025995 373.332451 2038.260917 0.2281101609 -0.9326381651 0.2795564479
-174.2492202 379.8949677 2044.764588 0.2281101609 -0.9326381651 0.2795564479
-201.6821293 369.6943504 2033.052996 0.2620842667 -0.9157500455 0.3044892303
-200.9974206 369.9548271 2033.27436 0.2620842667 -0.9157500455 0.3044892303
-160.8650908 382.3390817 2043.218628 0.1764583315 -0.9399161709 0.2922670849
-163.2245424 381.5732222 2042.449059 0.1764583315 -0.9399161709 0.2922670849
321.921454 209.1484809 2273.671539 -0.8946231498 -0.2136071162 -0.3924556278
322.0868335 208.1866183 2273.777626 -0.8946231498 -0.2136071162 -0.3924556278
-40.20849758 406.0137068 2094.312678 0.02784414132 -0.9816331594 0.1887353814
-28.44375644 407.0541221 2098.292576 0.02784414132 -0.9816331594 0.1887353814
14.84723617 408.798726 2105.955444 -0.009843425015 -0.9774269531 0.2110442093
7.045291814 408.3720169 2103.302604 -0.009843425015 -0.9774269531 0.2110442093
292.2296004 326.6891347 2236.04416 -0.8362721512 -0.4873195966 -0.2513334437
293.9618539 322.5522422 2236.850451 -0.8362721512 -0.4873195966 -0.2513334437
306.4844234 288.1912732 2246.238981 -0.8976635327 -0.3252357519 -0.2973581808
306.2401302 290.1354733 2246.055399 -0.8976635327 -0.3252357519 -0.2973581808
-180.3691223 -297.9984697 2137.882766 -0.1157250669 0.9644031449 -0.2377693904
-179.5596602 -297.827759 2138.151509 -0.1157250669 0.9644031449 -0.2377693904
-182.901293 -299.2400601 2133.822274 -0.1030642133 0.9706110967 -0.2174669328
-201.5003998 -303.7542832 2127.677715 -0.1030642133 0.9706110967 -0.2174669328
-307.0232792 -286.6276373 2136.367708 0.3560356573 0.890058138 -0.2846666852
-318.0737138 -283.6076161 2132.424202 0.3560356573 0.890058138 -0.2846666852
221.8959016 -189.9675781 2255.708679 -0.4051667683 0.8765498253 -0.2598081862
223.0313054 -189.3141217 2256.064377 -0.4051667683 0.8765498253 -0.2598081862
-439.9187571 -202.8153564 2020.049941 0.743558596 0.6401249335 0.1932891199
-437.7124837 -206.007048 2020.970207 0.743558596 0.6401249335 0.1932891199
-530.2837952 77.4198551 2002.218868 0.9654748464 -0.1934311564 0.1744783904
-530.0864719 78.31869699 2002.240363 0.9654748464 -0.1934311564 0.1744783904
283.0609566 -149.909839 2255.476662 -0.6359676415 0.7347662778 -0.2359315069
277.368471 -155.7292075 2253.823912 -0.6359676415 0.7347662778 -0.2359315069
325.3157585 182.8009098 2277.798083 -0.8958533214 -0.1889061338 -0.4021955981
322.9095474 199.2451686 2276.12878 -0.8958533214 -0.1889061338 -0.4021955981
233.6599501 -185.8579652 2249.537821 -0.4583099915 0.859269043 -0.2271754025
239.9733477 -182.4948748 2251.529563 -0.4583099915 0.859269043 -0.2271754025
202.3235951 -198.0571164 2254.611193 -0.3073052353 0.9169975166 -0.2543207558
201.7108119 -198.3313616 2254.415194 -0.3073052353 0.9169975166 -0.2543207558
-529.9951567 80.88246211 2004.723278 0.9640316538 -0.2107441914 0.1619563405
-530.1437923 80.41478648 2004.696335 0.9640316538 -0.2107441914 0.1619563405
-536.1754715 55.01446402 2023.058073 0.9938597426 -0.08558466897 0.07012899836
-536.1094101 55.382882 2023.061804 0.9938597426 -0.08558466897 0.07012899836
-42.5865468 -259.9507361 2130.476595 -0.1881466498 0.982140944 -6.519656605e-05
-40.81137445 -260.0753907 2131.09158 -0.1881466498 0.982140944 -6.519656605e-05
-35.33926764 -259.1057631 2131.085807 -0.1954690504 0.9806872627 0.006659069328
-39.34689433 -259.7846545 2129.746727 -0.1954690504 0.9806872627 0.006659069328
71.22383428 406.5906408 2102.261564 0.03350863736 -0.9399522783 0.3396570118
83.9375665 407.3685946 2106.580283 0.03350863736 -0.9399522783 0.3396570118
77.74018345 405.7220044 2103.030382 0.06449555263 -0.9317193271 0.3574065183
83.58603502 406.6971537 2104.984451 0.06449555263 -0.9317193271 0.3574065183
-68.2563731 403.2511851 2085.638736 0.03479053449 -0.9817204518 0.1871218139
-77.66151182 402.3269854 2082.461816 0.03479053449 -0.9817204518 0.1871218139
-80.71637126 402.2479724 2082.597379 0.03773084176 -0.9825230134 0.182277019
-78.24957327 402.4874977 2083.430775 0.03773084176 -0.9825230134 0.182277019
-68.09490974 402.9050829 2083.83818 0.03398321773 -0.9799899409 0.1961245946
-63.68434763 403.3229414 2085.328803 0.03398321773 -0.9799899409 0.1961245946
-174.0497758 377.9893495 2038.615422 0.2271129387 -0.9231100742 0.3103022783
-173.3554638 378.2120029 2038.842021 0.2271129387 -0.9231100742 0.3103022783
331.100203 136.620516 2282.363682 -0.8980286921 -0.172146225 -0.4048581793
332.5507657 126.7958402 2283.365457 -0.8980286921 -0.172146225 -0.4048581793
333.8580739 121.5012332 2282.793244 -0.899783475 -0.1771907948 -0.398739414
332.9017223 127.8047541 2282.141704 -0.899783475 -0.1771907948 -0.398739414
6.15059863 408.8013695 2105.30871 -0.005369959096 -0.9795737161 0.2010136768
-0.7460027373 408.416863 2102.964083 -0.005369959096 -0.9795737161 0.2010136768
50.99989561 408.3694021 2104.490822 0.04095967675 -0.9541018661 0.2966680536
4.686615813 404.1337086 2088.830675 0.04095967675 -0.9541018661 0.2966680536
297.5073872 -135.4293024 2258.340638 -0.7015560169 0.6679710487 -0.2482616226
297.699582 -135.1512962 2258.392253 -0.7015560169 0.6679710487 -0.2482616226
-531.0679383 74.54226293 2003.734796 0.9703821788 -0.1745489861 0.1670062228
-525.7284381 107.9234571 2003.851288 0.9703821788 -0.1745489861 0.1670062228
-237.736368 -305.1438471 2125.032077 0.07095151924 0.9758480619 -0.2066069747
-248.4099269 -305.7567131 2121.404316 0.07095151924 0.9758480619 -0.2066069747
-277.7809443 -301.8889156 2118.890484 0.2178066063 0.9565090743 -0.1940378133
-280.3732798 -303.2466563 2118.071468 0.2178066063 0.9565090743 -0.1940378133
-239.3005411 364.4729198 2047.210121 0.06473857126 -0.9921676835 0.1068279233
-230.9214066 365.4733619 2050.031379 0.06473857126 -0.9921676835 0.1068279233
-233.5924815 364.1799364 2041.533441 0.07809394544 -0.9857005558 0.1493176145
-225.7861511 365.1210532 2044.161371 0.07809394544 -0.9857005558 0.1493176145
-228.6242759 364.3505994 2048.013735 0.1233977916 -0.9823254551 0.1407468838
-234.8469204 364.4460331 2045.875517 0.1233977916 -0.9823254551 0.1407468838
325.8590498 163.9094635 2283.417688 -0.8929529894 -0.1463242723 -0.4257043176
326.2033078 160.9463808 2283.687859 -0.8929529894 -0.1463242723 -0.4257043176
-212.6411136 -301.8911505 2138.928247 -0.05452475273 0.959584579 -0.276087825
-212.5609916 -301.8775202 2138.955015 -0.05452475273 0.959584579 -0.276087825
-201.9163037 -301.3231933 2137.537815 -0.1009846937 0.958455647 -0.2667674351
-203.2690034 -301.6517338 2137.090937 -0.1009846937 0.958455647 -0.2667674351
320.7268995 -105.9806348 2258.156042 -0.8058297719 0.539428043 -0.2442452973
318.8384188 -108.9552977 2257.661355 -0.8058297719 0.539428043 -0.2442452973
311.8922845 -116.7658318 2262.176695 -0.7725195296 0.5760437266 -0.2671838345
312.1763703 -116.2784344 2262.249062 -0.7725195296 0.5760437266 -0.2671838345
350.7873899 -15.3307551 2281.455976 -0.9196517983 0.1727821845 -0.3526852515
350.0894572 -19.59739271 2281.435786 -0.9196517983 0.1727821845 -0.3526852515
352.3698027 -8.00342925 2280.193567 -0.9310079515 0.1148455482 -0.3464602348
352.3606878 -8.010065467 2280.190783 -0.9310079515 0.1148455482 -0.3464602348
343.9237588 -57.74453382 2266.711692 -0.8889188591 0.3632300572 -0.2790827609
341.7119876 -62.52364258 2266.198825 -0.8889188591 0.3632300572 -0.2790827609
-62.96714625 402.9429512 2083.363441 0.03039721081 -0.9780899899 0.2059514049
-60.9517027 403.209761 2084.040698 0.03039721081 -0.9780899899 0.2059514049
335.2462173 105.8478539 2286.845 -0.8923380483 -0.1900974938 -0.4093845996
333.8307712 115.0297567 2285.888269 -0.8923380483 -0.1900974938 -0.4093845996
-519.9354596 124.1004254 1993.295643 0.9431091244 -0.2492480096 0.2200468343
-520.2738272 122.8632618 1993.243166 0.9431091244 -0.2492480096 0.2200468343
320.2405639 224.8640999 2267.081518 -0.8862186994 -0.2921852112 -0.3595055204
319.7636082 226.5635111 2266.830741 -0.8862186994 -0.2921852112 -0.3595055204
319.6203781 233.789376 2260.685185 -0.885502549 -0.3283145355 -0.3287777387
315.388216 252.7569032 2258.260324 -0.885502549 -0.3283145355 -0.3287777387
34.66511945 -239.4699077 2184.708355 -0.1520704901 0.979574537 -0.1315609842
61.61941951 -234.133164 2193.675102 -0.1520704901 0.979574537 -0.1315609842
17.80870272 -243.6419411 2173.737343 -0.1527970858 0.9826704395 -0.1049374003
29.5034818 -241.2889059 2177.625856 -0.1527970858 0.9826704395 -0.1049374003
-452.5723797 -132.8285021 1926.209117 0.6046714485 0.5458015773 0.5800629945
-454.1304948 -134.3352239 1925.752314 0.6046714485 0.5458015773 0.5800629945
-475.8906499 -134.2482912 1960.136803 0.7390016889 0.52854115 0.4177568151
-477.7035557 -131.0825915 1959.35273 0.7390016889 0.52854115 0.4177568151
-438.4014082 -140.2425452 1920.293151 0.5424909512 0.5743409186 0.6130547098
-440.1362802 -138.5363704 1919.610774 0.5424909512 0.5743409186 0.6130547098
-463.2724408 -162.7529788 1980.172076 0.7094256755 0.6219003219 0.3315949345
-467.1627018 -157.3857602 1978.562778 0.7094256755 0.6219003219 0.3315949345
-452.2577743 -182.9109288 2000.642601 0.7168745129 0.6491098173 0.2544550606
-464.7622083 -168.1948779 1995.600051 0.7168745129 0.6491098173 0.2544550606
-455.8049272 -182.7903555 2011.640518 0.7346102773 0.6485069505 0.1994654748
-449.0862525 -191.0986651 2014.370505 0.7346102773 0.6485069505 0.1994654748
-439.2912081 -204.5930369 2023.745697 0.7404208506 0.6490133358 0.1748103368
-450.2483672 -191.1999422 2019.301532 0.7404208506 0.6490133358 0.1748103368
54.2390523 407.0675872 2100.120539 0.0247638933 -0.9475927918 0.3185194666
72.9727831 408.1187435 2106.489073 0.0247638933 -0.9475927918 0.3185194666
123.4564549 -220.3617871 2216.656053 -0.2321938675 0.9576369107 -0.1703453994
124.14281 -220.1637014 2216.881186 -0.2321938675 0.9576369107 -0.1703453994
134.6187167 -216.82434 2219.775559 -0.2827144429 0.941351426 -0.1842010765
134.2469251 -216.9066044 2219.652321 -0.2827144429 0.941351426 -0.1842010765
166.4512621 -195.5824247 2248.038205 -0.4418817984 0.8359150851 -0.3255555969
166.5288323 -195.7008226 2248.070878 -0.4418817984 0.8359150851 -0.3255555969
135.7166671 -218.2846492 2207.847399 -0.2882088234 0.9494262076 -0.1246015671
139.7931437 -217.1958151 2209.189033 -0.2882088234 0.9494262076 -0.1246015671
159.0086533 -196.5752571 2255.202205 -0.4042809033 0.8402872576 -0.3612122312
158.9320088 -196.6115063 2255.17779 -0.4042809033 0.8402872576 -0.3612122312
273.4600705 -157.0267003 2257.629691 -0.5879632111 0.7703505843 -0.246696655
274.5662437 -156.027451 2257.957613 -0.5879632111 0.7703505843 -0.246696655
282.5159372 -151.1135226 2253.531482 -0.6265987669 0.7463921498 -0.2242158425
282.2933549 -151.2357641 2253.46145 -0.6265987669 0.7463921498 -0.2242158425
-468.1164522 -145.3060294 1961.478746 0.7001307004 0.5838298409 0.4110471009
-466.6028643 -147.6668801 1962.118876 0.7001307004 0.5838298409 0.4110471009
-262.9311793 359.5837735 2015.900807 0.0337963181 -0.9765302511 0.2127121944
-246.5336757 361.7677401 2021.410242 0.0337963181 -0.9765302511 0.2127121944
-224.4538092 361.2732085 2024.715087 -0.04918351841 -0.9773661434 0.2057581181
-229.9377084 361.9349186 2022.801058 -0.04918351841 -0.9773661434 0.2057581181
330.920133 -89.23000817 2258.912791 -0.846950211 0.4716130124 -0.2454720079
331.3972871 -88.39167062 2259.033328 -0.846950211 0.4716130124 -0.2454720079
149.9063048 -216.3150931 2211.105137 -0.1393479296 0.9879049602 -0.06801429393
136.4210327 -218.1276363 2206.575034 -0.1393479296 0.9879049602 -0.06801429393
260.7915633 -168.5171056 2254.037264 -0.553083103 0.798705768 -0.2369982645
258.92797 -170.3822198 2253.494135 -0.553083103 0.798705768 -0.2369982645
-48.26756707 -260.8444125 2131.077948 -0.3506648135 0.9341841395 -0.06583450551
-43.97079594 -259.8065109 2132.497722 -0.3506648135 0.9341841395 -0.06583450551
-142.6015146 -285.8749342 2152.313894 -0.2082509222 0.9375454482 -0.2786397065
-140.1040281 -284.995068 2153.124931 -0.2082509222 0.9375454482 -0.2786397065
-162.1502541 -295.6534008 2135.167322 -0.2027720975 0.9535313538 -0.2228484547
-143.6972796 -289.0721153 2141.155644 -0.2027720975 0.9535313538 -0.2228484547
338.9755412 102.5176927 2280.657304 -0.882928582 -0.2984937122 -0.3624067093
339.9056095 99.44571852 2281.133901 -0.882928582 -0.2984937122 -0.3624067093
347.1370202 73.75934607 2283.689321 -0.9023516412 -0.2267434421 -0.3665363925
347.3342944 73.12207282 2283.789676 -0.9023516412 -0.2267434421 -0.3665363925
344.3703303 84.56862086 2282.838846 -0.8894923635 -0.2778527072 -0.3627688084
344.5651647 83.98119909 2282.935804 -0.8894923635 -0.2778527072 -0.3627688084
342.8804406 -55.11487284 2273.028245 -0.8837022684 0.3500817522 -0.3106655237
342.9061304 -55.05788976 2273.034126 -0.8837022684 0.3500817522 -0.3106655237
350.3304306 -26.98285422 2276.663195 -0.9208110908 0.2097426731 -0.328808373
350.3278949 -26.99007393 2276.662696 -0.9208110908 0.2097426731 -0.328808373
-56.00575949 404.055704 2087.510381 0.02889257963 -0.9800879297 0.1964506781
-58.6997066 403.7612029 2086.601933 0.02889257963 -0.9800879297 0.1964506781
-60.45098362 403.303834 2084.418442 0.02789361541 -0.9785603549 0.2040626818
-58.49991376 403.4556879 2085.079533 0.02789361541 -0.9785603549 0.2040626818
-492.9127298 198.0797343 1990.093955 0.8687422917 -0.4292022391 0.2471280407
-493.5663343 196.6454731 1989.943525 0.8687422917 -0.4292022391 0.2471280407
34.88803643 -239.1142018 2186.996368 -0.153185075 0.9777960075 -0.1430010505
32.18761114 -239.7789744 2186.104713 -0.153185075 0.9777960075 -0.1430010505
29.26099958 -240.8082763 2182.014052 -0.1515846748 0.9802672913 -0.1268783825
31.8675311 -240.2732312 2182.880179 -0.1515846748 0.9802672913 -0.1268783825
-407.2616049 -241.2828632 2089.840796 0.6578710667 0.7427759784 -0.1244568421
-405.7789769 -242.312575 2090.401961 0.6578710667 0.7427759784 -0.1244568421
-420.3782856 -230.0812066 2071.241422 0.7018755929 0.7111692986 -0.04011085688
-416.0625102 -234.9615273 2072.971599 0.7018755929 0.7111692986 -0.04011085688
-387.5766449 -254.1487609 2103.212333 0.5668594065 0.8019569081 -0.1885087024
-383.4166994 -256.3645522 2104.752269 0.5668594065 0.8019569081 -0.1885087024
-437.1137044 -209.3477145 2031.244546 0.7405646995 0.6568282657 0.1419174236
-435.5843359 -211.3424393 2031.871287 0.7405646995 0.6568282657 0.1419174236
-421.0587503 -229.5546493 2058.490311 0.7052779164 0.708536512 0.02364469906
-428.5269792 -221.6840886 2055.525831 0.7052779164 0.708536512 0.02364469906
-360.4671726 -270.5808206 2104.606855 0.5054015542 0.8463437239 -0.1681415178
-371.1251289 -265.2419153 2100.678832 0.5054015542 0.8463437239 -0.1681415178
168.0438532 420.3103832 2139.878307 -0.2172444306 -0.9489922697 0.2285137402
167.9141845 420.3488211 2139.831879 -0.2172444306 -0.9489922697 0.2285137402
-13.19375765 408.3978658 2103.411676 0.0197595544 -0.9823133287 0.1861990447
-25.36883986 407.3252152 2099.292756 0.0197595544 -0.9823133287 0.1861990447
-3.217180119 408.7427947 2104.596812 0.006985927815 -0.9812033741 0.1928500336
-10.63903233 408.1758748 2102.081479 0.006985927815 -0.9812033741 0.1928500336
-28.42549242 407.3670182 2099.955206 0.02775282123 -0.98319764 0.1804222314
-26.96749323 407.5020775 2100.448118 0.02775282123 -0.98319764 0.1804222314
324.6292416 176.8985741 2281.781386 -0.892420737 -0.1593944553 -0.4221121129
325.4342191 169.3067242 2282.447184 -0.892420737 -0.1593944553 -0.4221121129
335.9553808 104.1616312 2286.197091 -0.8834991864 -0.246076643 -0.3985918631
335.8459936 104.6565373 2286.134177 -0.8834991864 -0.246076643 -0.3985918631
343.47896 86.35255316 2283.62641 -0.8850355123 -0.2867723687 -0.3667066272
343.0525147 87.73359297 2283.409298 -0.8850355123 -0.2867723687 -0.3667066272
338.9438735 102.5048879 2280.885944 -0.878119902 -0.3137895592 -0.3611669285
339.5805174 100.3702818 2281.213813 -0.878119902 -0.3137895592 -0.3611669285
343.9785685 86.89053448 2281.805353 -0.8896657811 -0.2825570762 -0.3586869062
341.8896932 94.12378522 2280.717809 -0.8896657811 -0.2825570762 -0.3586869062
332.1548486 135.6754568 2280.389735 -0.9033019204 -0.167420929 -0.3949884467
331.5739796 139.832196 2279.977155 -0.9033019204 -0.167420929 -0.3949884467
329.7964242 150.4428412 2279.901877 -0.9023152761 -0.1595910932 -0.4004470321
329.2226214 154.5490355 2279.494315 -0.9023152761 -0.1595910932 -0.4004470321
328.4023017 153.1067841 2281.86522 -0.898213678 -0.1523798364 -0.4123015574
327.2554455 162.1574936 2281.007307 -0.898213678 -0.1523798364 -0.4123015574
136.6326073 -215.9647637 2224.959782 -0.1404058025 0.9770905976 -0.1599380341
130.2459565 -216.6839009 2222.807165 -0.1404058025 0.9770905976 -0.1599380341
-338.1663577 -267.9420672 2143.774421 0.5117510497 0.7966302875 -0.3217002458
-338.9453011 -270.0221882 2143.614184 0.5117510497 0.7966302875 -0.3217002458
-343.4024788 -275.7055597 2121.935771 0.5329526012 0.8188035911 -0.2133593308
-343.1856114 -274.456849 2121.946001 0.5329526012 0.8188035911 -0.2133593308
-327.9272753 -285.2059394 2109.687789 0.4053034647 0.8980497545 -0.170984619
-340.4475546 -280.9220267 2105.175475 0.4053034647 0.8980497545 -0.170984619
190.5430609 -206.8778579 2229.112659 -0.2731966251 0.9524546367 -0.1348842807
194.3783286 -205.7993967 2230.372132 -0.2731966251 0.9524546367 -0.1348842807
198.1611214 -201.9899981 2244.239212 -0.2895567825 0.9352906992 -0.2034408456
197.6503601 -202.3666092 2244.083445 -0.2895567825 0.9352906992 -0.2034408456
-49.19511447 -260.8386729 2141.514385 -0.3245432209 0.9393449495 -0.1109178234
-34.52372193 -256.8238315 2146.338044 -0.3245432209 0.9393449495 -0.1109178234
-37.10796695 -258.3891897 2143.452005 -0.215539549 0.9743332118 -0.06494224522
-51.32165105 -262.575513 2138.794068 -0.215539549 0.9743332118 -0.06494224522
-47.66224735 -262.1516026 2128.006156 -0.2338365675 0.97221366 -0.01100268568
-52.6650526 -263.3975736 2126.355016 -0.2338365675 0.97221366 -0.01100268568
339.135055 104.109124 2278.91943 -0.8837261513 -0.3064508682 -0.3537173375
337.9169736 108.1323314 2278.29525 -0.8837261513 -0.3064508682 -0.3537173375
351.2616504 13.03192122 2288.097766 -0.9220231008 0.03096880284 -0.3858942016
351.2070808 17.13934158 2287.868151 -0.9220231008 0.03096880284 -0.3858942016
351.4498131 25.52726725 2287.504289 -0.9232367622 -0.01097082552 -0.3840748911
351.5668304 29.17519998 2287.357092 -0.9232367622 -0.01097082552 -0.3840748911
350.1258351 52.63692078 2286.61972 -0.916309345 -0.1243176819 -0.3806866143
350.181347 51.84457125 2286.679437 -0.916309345 -0.1243176819 -0.3806866143
322.2882022 202.5082647 2276.1672 -0.8956299932 -0.1852153482 -0.404403499
322.8648818 198.5070115 2276.57036 -0.8956299932 -0.1852153482 -0.404403499
329.2294994 150.6464686 2281.087124 -0.8994806522 -0.16060923 -0.4063732664
330.809726 138.4698562 2282.254119 -0.8994806522 -0.16060923 -0.4063732664
335.299576 100.5882981 2289.674112 -0.8810005381 -0.2245484638 -0.4164325147
335.3462639 100.3509015 2289.702308 -0.8810005381 -0.2245484638 -0.4164325147
336.0033428 110.8592105 2281.538442 -0.8837389966 -0.2795645396 -0.3752986199
337.9195427 102.7550657 2282.611507 -0.8837389966 -0.2795645396 -0.3752986199
-250.2930988 362.327341 2069.514707 0.2317419061 -0.9722091632 0.0332420221
-244.164935 363.745651 2071.542806 0.2317419061 -0.9722091632 0.0332420221
117.3549984 -220.3137964 2223.133372 -0.1760180965 0.9650161141 -0.1943232597
137.3684152 -214.2690042 2229.68421 -0.1760180965 0.9650161141 -0.1943232597
335.7113859 -76.21637908 2265.483662 -0.8589158504 0.4316937397 -0.2755069455
334.6887588 -78.4828895 2265.249454 -0.8589158504 0.4316937397 -0.2755069455
334.0879607 -81.65822832 2261.9537 -0.8559118597 0.4475704338 -0.2590281748
333.6973547 -82.60998515 2261.868659 -0.8559118597 0.4475704338 -0.2590281748
331.2643253 -87.09821767 2261.877525 -0.8462854022 0.4651457477 -0.2596929945
331.7720632 -86.12504794 2262.001623 -0.8462854022 0.4651457477 -0.2596929945
-206.2196021 372.1721728 2046.008033 0.284771631 -0.9281391578 0.239714042
-216.0427316 368.9333593 2042.806664 0.284771631 -0.9281391578 0.239714042
-227.63592 367.3882045 2047.125224 0.2366331322 -0.9541180864 0.1834759873
-206.4150319 374.129145 2054.054275 0.2366331322 -0.9541180864 0.1834759873
-231.3616962 367.7020559 2053.24942 0.2372075009 -0.9602877321 0.146901576
-227.7507937 368.6221336 2054.440106 0.2372075009 -0.9602877321 0.146901576
-237.7109481 367.0802268 2060.798496 0.2297225238 -0.9684814913 0.0962868793
-229.8647008 369.3408077 2063.372359 0.2297225238 -0.9684814913 0.0962868793
-255.1054764 360.8105061 2071.620982 0.286444613 -0.9575334386 0.03285114278
-249.055366 364.8906163 2073.485644 0.286444613 -0.9575334386 0.03285114278
-38.34711775 -255.1897987 2173.489828 -0.1569437627 0.9676287755 -0.1976441455
-36.66643396 -254.7903663 2174.045509 -0.1569437627 0.9676287755 -0.1976441455
-7.313815514 -248.1691418 2171.678504 -0.2051741249 0.9665854628 -0.1536753773
-3.566141727 -247.1130507 2172.909096 -0.2051741249 0.9665854628 -0.1536753773
6.14249368 -245.6308953 2170.359276 -0.1986792928 0.9723491667 -0.1227340077
-4.865108157 -248.2657915 2166.720822 -0.1986792928 0.9723491667 -0.1227340077
11.89785106 -245.5062001 2163.93674 -0.1766929143 0.9815013818 -0.07372008974
17.22808358 -244.4417228 2165.709452 -0.1766929143 0.9815013818 -0.07372008974
21.08137371 -243.7115559 2166.975681 -0.1691604408 0.9830185134 -0.07112909104
15.72158888 -244.7451491 2165.191252 -0.1691604408 0.9830185134 -0.07112909104
-9.283121989 -249.6925063 2165.605043 -0.2330795574 0.9629469566 -0.1356726896
-1.732729025 -247.4414405 2168.077967 -0.2330795574 0.9629469566 -0.1356726896
336.0797411 99.22791444 2288.737112 -0.8849013639 -0.2177465454 -0.4117475175
334.0918125 109.4126823 2287.532621 -0.8849013639 -0.2177465454 -0.4117475175
76.47716816 401.1097509 2093.238463 0.1000398869 -0.9037823132 0.4161364577
86.98156664 404.0156708 2096.690486 0.1000398869 -0.9037823132 0.4161364577
100.3144871 409.7450652 2107.956199 0.0333752846 -0.9324292851 0.3598078913
101.9307371 410.0204367 2108.496161 0.0333752846 -0.9324292851 0.3598078913
119.2667831 412.018558 2114.426434 -0.05330494527 -0.9424198916 0.3301565246
119.8392092 412.0186445 2114.622675 -0.05330494527 -0.9424198916 0.3301565246
136.8404264 411.1185662 2117.356268 -0.1362270173 -0.9385121912 0.3172334577
136.4236235 411.2371045 2117.207289 -0.1362270173 -0.9385121912 0.3172334577
-461.7213178 253.2501641 2002.492019 0.7801272276 -0.5919699808 0.2024180096
-467.8202833 244.4486896 2000.85304 0.7801272276 -0.5919699808 0.2024180096
-472.849148 235.8668236 1996.58393 0.8052715509 -0.5490606508 0.2237635605
-474.2717294 233.6810988 1996.208457 0.8052715509 -0.5490606508 0.2237635605
-508.2787838 159.6798407 1987.752861 0.9112277911 -0.3261120888 0.2516243594
-508.0729501 160.2768258 1987.792773 0.9112277911 -0.3261120888 0.2516243594
334.1890077 105.9054202 2289.089046 -0.8853873396 -0.2002102348 -0.4195296423
333.8560756 107.8704021 2288.874009 -0.8853873396 -0.2002102348 -0.4195296423
332.5451988 122.6478393 2285.19121 -0.8932190998 -0.1829238251 -0.4107292465
334.0069815 113.5950229 2286.157199 -0.8932190998 -0.1829238251 -0.4107292465
2.211112915 -245.8649574 2174.340905 -0.1682632528 0.9758819866 -0.1390748932
0.05928567938 -246.3374593 2173.627453 -0.1682632528 0.9758819866 -0.1390748932
85.78976972 -229.0576541 2205.303599 -0.1454419135 0.9783492271 -0.1472393953
65.89057543 -232.8055782 2198.673981 -0.1454419135 0.9783492271 -0.1472393953
59.19887251 -232.5175151 2205.627239 -0.1399677551 0.9714962926 -0.191321669
60.96731723 -232.098702 2206.212011 -0.1399677551 0.9714962926 -0.191321669
64.17132166 -231.7384878 2206.383854 -0.1368456447 0.9730137747 -0.185788761
60.34289515 -232.4021984 2205.10543 -0.1368456447 0.9730137747 -0.185788761
91.87648491 -226.3680988 2214.859824 -0.1758754895 0.9649014502 -0.1950205207
110.8594341 -222.0775375 2221.147461 -0.1758754895 0.9649014502 -0.1950205207
113.9876961 -221.8360833 2219.353487 -0.1915167996 0.9636941792 -0.1860506501
115.3210414 -221.5732408 2219.797103 -0.1915167996 0.9636941792 -0.1860506501
-10.5289861 -249.8797578 2166.376146 -0.2268502368 0.9638832143 -0.1395282026
-22.68513914 -254.041254 2162.422321 -0.2268502368 0.9638832143 -0.1395282026
0.594914091 -246.7399843 2169.710076 -0.1601822587 0.9802571214 -0.1159207488
8.595719937 -245.2573481 2172.376872 -0.1601822587 0.9802571214 -0.1159207488
113.8561202 402.894485 2092.658973 -0.02130548625 -0.8973917853 0.4407199336
116.895216 404.2098028 2093.633331 -0.02130548625 -0.8973917853 0.4407199336
-463.357997 -153.715495 1965.540851 0.6839063639 0.6140729155 0.3939372284
-462.0588395 -155.8202789 1966.094319 0.6839063639 0.6140729155 0.3939372284
-526.4774174 -78.92626269 2066.581426 0.934751119 0.3274305905 -0.1379476494
-525.1738597 -81.74421969 2067.173022 0.934751119 0.3274305905 -0.1379476494
-522.8722996 -90.46929276 2035.821045 0.9389855935 0.3429987461 0.02564985961
-526.0207546 -84.85785082 2034.453521 0.9389855935 0.3429987461 0.02564985961
-503.3916743 -122.6894734 2002.721195 0.8509773458 0.4875728246 0.1952185894
-505.2706501 -119.3841085 2001.907299 0.8509773458 0.4875728246 0.1952185894
-44.23569016 -259.2715077 2131.209745 -0.3708241981 0.9263196155 -0.06649348896
-49.1505213 -260.7369144 2129.600033 -0.3708241981 0.9263196155 -0.06649348896
-65.77790595 -267.7298415 2106.032807 -0.3562497708 0.9339330939 0.02924169815
-68.95127199 -268.8306087 2105.0014 -0.3562497708 0.9339330939 0.02924169815
-88.09778476 -271.6536786 2147.302434 -0.280985099 0.9409348572 -0.1889152422
-103.0777314 -277.6002606 2142.472185 -0.280985099 0.9409348572 -0.1889152422
-129.6654782 -284.9902739 2143.537026 -0.2604436716 0.9375214777 -0.2307001796
-107.1860168 -276.9175847 2150.829172 -0.2604436716 0.9375214777 -0.2307001796
-57.96894733 -264.4953279 2115.666912 -0.3267320679 0.9451116831 0.003172115031
-71.68144653 -269.9655594 2111.246723 -0.3267320679 0.9451116831 0.003172115031
-83.01861654 -272.4926934 2132.199891 -0.3063809401 0.945129931 -0.1134025264
-78.92503814 -271.0699762 2133.530244 -0.3063809401 0.945129931 -0.1134025264
146.3966239 416.7289907 2115.845768 -0.1096566277 -0.9308931173 0.348444297
143.1072507 415.1191505 2114.80073 -0.1096566277 -0.9308931173 0.348444297
145.0282767 410.377445 2103.794421 -0.119261758 -0.9071845898 0.4034758397
136.4864703 406.1683637 2101.08215 -0.119261758 -0.9071845898 0.4034758397
