# .PCD v0.7 - Point Cloud Data file format
VERSION 0.7
FIELDS x y z normal_x normal_y normal_z
SIZE 4 4 4 4 4 4
TYPE F F F F F F
COUNT 1 1 1 1 1 1
WIDTH 452
HEIGHT 1
VIEWPOINT 0 0 0 1 0 0 0
POINTS 452
DATA ascii
10.55473398 388.8098115 2023.361737 -0.06211493534 -0.942394557 0.3286856153
15.62924001 389.1517563 2025.505308 -0.06211493534 -0.942394557 0.3286856153
-264.0569236 355.4652111 1953.819501 0.01136125674 -0.9820248107 0.1884096416
-262.2754929 355.5819123 1954.573728 0.01136125674 -0.9820248107 0.1884096416
-259.6412071 355.5996983 1954.599675 -0.001810172363 -0.9821137409 0.1882799066
-258.0723424 355.7859009 1955.221073 -0.001810172363 -0.9821137409 0.1882799066
-471.4434578 216.1009096 1947.404383 0.8508995169 -0.4737237385 0.2270590932
-469.8194295 218.6312187 1946.847532 0.8508995169 -0.4737237385 0.2270590932
-279.3715377 353.7039321 1949.021567 0.08793432722 -0.973218416 0.2123993144
-284.7127539 353.0484753 1946.917061 0.08793432722 -0.973218416 0.2123993144
-527.1238409 -12.25337565 1974.522469 0.9495865459 0.136603854 0.2821786293
-525.3121287 -0.06763203894 1969.094309 0.9495865459 0.136603854 0.2821786293
7.832712326 392.8955751 2035.950603 -0.04850482709 -0.9628233754 0.2657412831
-15.90302892 390.9953997 2026.078559 -0.04850482709 -0.9628233754 0.2657412831
-528.5191715 -18.89712088 1974.482516 0.9448101617 0.1047172649 0.3104320421
-527.0609915 -13.36139914 1972.306896 0.9448101617 0.1047172649 0.3104320421
-263.0437139 355.2447882 1952.762981 0.02304668499 -0.9794081776 0.2005703665
-261.1468528 355.4661119 1953.516248 0.02304668499 -0.9794081776 0.2005703665
-500.4219102 148.0753459 1946.476902 0.910346199 -0.3044240237 0.2803494459
-504.0167533 139.6581753 1949.155366 0.910346199 -0.3044240237 0.2803494459
-532.1861862 -2.352823391 2005.614086 0.9839568332 0.1480298107 0.09957974499
-534.6466671 1.584646717 2002.468118 0.9839568332 0.1480298107 0.09957974499
-373.8688416 -244.7343037 2164.002746 0.4591870222 0.8356909745 -0.3012770715
-358.2368529 -250.6300183 2174.17365 0.4591870222 0.8356909745 -0.3012770715
-339.5436297 -249.6681078 2197.795355 0.3657209061 0.8308814219 -0.4193856
-321.5279974 -252.3848347 2207.423533 0.3657209061 0.8308814219 -0.4193856
-275.85562 354.5920754 1952.101915 0.03686467488 -0.9822276543 0.18403758
-274.4988234 354.850323 1952.589408 0.03686467488 -0.9822276543 0.18403758
-192.2928253 363.9517698 1981.834047 0.1204186418 -0.9652849641 0.2317850055
-198.3723136 362.6206293 1979.739035 0.1204186418 -0.9652849641 0.2317850055
-532.1902981 20.013839 1986.721745 0.9749188317 -0.0247322193 0.2211822529
-533.0827255 12.5284977 1990.156854 0.9749188317 -0.0247322193 0.2211822529
-534.3139611 -52.30085926 2032.192639 0.9724211315 0.2292173893 0.04308748517
-534.2942275 -54.55056654 2033.356654 0.9724211315 0.2292173893 0.04308748517
-388.0785774 -240.6416153 2150.332381 0.5302357016 0.8152275325 -0.2329252479
-396.8977107 -236.9082529 2144.385202 0.5302357016 0.8152275325 -0.2329252479
-97.60088169 -234.1472184 2258.382336 -0.07844538698 0.8925962236 -0.4439800703
-100.3933641 -234.984491 2257.535983 -0.07844538698 0.8925962236 -0.4439800703
-536.8466658 -30.09645983 2015.799681 0.9850846551 0.1181953921 0.1250522754
-536.5740702 -21.59274632 2011.558469 0.9850846551 0.1181953921 0.1250522754
-274.1646277 356.2872834 1962.301855 0.02840971328 -0.9907036943 0.1330378829
-275.6700562 356.3122703 1961.601023 0.02840971328 -0.9907036943 0.1330378829
-188.2031248 360.7260814 1968.970689 0.0695726974 -0.9558122246 0.285626734
-198.3932625 358.6023124 1965.403982 0.0695726974 -0.9558122246 0.285626734
-194.6630843 363.3501573 1980.639885 0.1322699367 -0.9622769019 0.2377558156
-191.8296355 364.0266924 1981.587482 0.1322699367 -0.9622769019 0.2377558156
-195.701478 363.3170124 1981.035314 0.1516291494 -0.9587285018 0.240516654
-182.5935277 366.5743277 1985.353544 0.1516291494 -0.9587285018 0.240516654
-187.1219508 368.8052619 1999.356874 0.1973601556 -0.9640273496 0.1780456069
-172.9106841 372.7463024 2003.828313 0.1973601556 -0.9640273496 0.1780456069
-534.4751899 -44.98510512 2070.069877 0.9733259433 0.1813900822 -0.1404786321
-533.8306697 -47.02230706 2071.410329 0.9733259433 0.1813900822 -0.1404786321
-419.6276319 -225.6020517 2113.195351 0.6143024213 0.7823656588 -0.102647509
-422.3445601 -224.8369917 2111.560894 0.6143024213 0.7823656588 -0.102647509
-412.7008188 -230.1942969 2124.501526 0.6092512417 0.7816577525 -0.1335068633
-418.6173959 -225.4604704 2119.367222 0.6092512417 0.7816577525 -0.1335068633
-100.1395529 -238.9001119 2248.569802 -0.06575203072 0.9163606908 -0.3949174025
-93.26920471 -237.5265504 2251.00447 -0.06575203072 0.9163606908 -0.3949174025
-252.2830357 -245.5630076 2246.863096 0.09748268496 0.8050236708 -0.5851786186
-258.9333113 -246.8054249 2244.461675 0.09748268496 0.8050236708 -0.5851786186
-17.85625752 392.3466654 2030.888627 -0.03873868409 -0.9695797039 0.2416909435
-20.56040738 392.0751337 2029.792194 -0.03873868409 -0.9695797039 0.2416909435
-119.4696141 371.1835331 1972.921156 0.1660716064 -0.8968700575 0.4099320937
-123.9374463 369.5796528 1971.702719 0.1660716064 -0.8968700575 0.4099320937
2.72900338 392.1709768 2033.551551 0.002386247815 -0.9574906595 0.2884544033
3.727990178 392.3507091 2033.915828 0.002386247815 -0.9574906595 0.2884544033
329.9020595 7.234065874 2336.36969 -0.8932596305 0.09476206669 -0.4394398517
328.4908164 1.427735093 2338.705691 -0.8932596305 0.09476206669 -0.4394398517
310.6881784 -38.88423191 2353.59279 -0.8177647212 0.2716741288 -0.5073992791
312.8768483 -35.15047186 2352.676139 -0.8177647212 0.2716741288 -0.5073992791
-497.4775623 147.8022396 1937.427707 0.8956244595 -0.3030584917 0.3255954209
-493.6312083 156.294145 1934.825818 0.8956244595 -0.3030584917 0.3255954209
-513.6143787 112.5196363 1954.337145 0.9240495849 -0.2562256528 0.2836913456
-510.3043385 120.7821038 1951.607946 0.9240495849 -0.2562256528 0.2836913456
328.5618667 164.8643554 2277.571794 -0.8915693624 -0.1463714117 -0.4285784432
328.9890286 170.560573 2274.842585 -0.8915693624 -0.1463714117 -0.4285784432
-224.5335233 -237.119895 2258.886559 0.03227708092 0.7825098734 -0.6218010036
-229.3578981 -238.575073 2257.428833 0.03227708092 0.7825098734 -0.6218010036
-232.8330951 -241.1638412 2253.86399 0.04965306557 0.7954537142 -0.603976789
-235.1682668 -241.3025923 2252.868016 0.04965306557 0.7954537142 -0.603976789
-243.6028803 -244.3525123 2249.613879 0.05408190786 0.7989711941 -0.5989325323
-236.0540352 -242.0060883 2251.859165 0.05408190786 0.7989711941 -0.5989325323
-266.9661121 -245.1104492 2245.165225 0.137646689 0.7965487926 -0.5886963649
-271.7963495 -245.3721162 2243.092073 0.137646689 0.7965487926 -0.5886963649
-299.5886097 -248.7739326 2228.191364 0.256023968 0.8128269114 -0.5232247508
-295.4718053 -248.6277399 2229.99775 0.256023968 0.8128269114 -0.5232247508
-354.9352734 338.6882255 1967.631575 0.4030353916 -0.9100505387 0.09680129164
-358.044599 337.4719268 1966.835012 0.4030353916 -0.9100505387 0.09680129164
-307.0332992 353.34212 1965.054862 0.1852259283 -0.9758529429 0.1157686887
-311.3733807 351.8487064 1963.838095 0.1852259283 -0.9758529429 0.1157686887
-414.1460009 298.7285387 1953.122742 0.6484775904 -0.743513705 0.1632917181
-409.4050014 301.9657825 1953.627454 0.6484775904 -0.743513705 0.1632917181
147.0156201 -170.8512633 2350.584733 -0.1300984009 0.8501020575 -0.5102949127
132.6850259 -174.5871581 2345.953439 -0.1300984009 0.8501020575 -0.5102949127
-530.3392694 -58.78619462 2077.145921 0.9558689418 0.24020952 -0.1691565918
-529.4817776 -61.23955964 2078.797361 0.9558689418 0.24020952 -0.1691565918
-436.0056164 -214.2983854 2099.09261 0.682607703 0.7296726273 -0.04030608879
-439.8145352 -209.9420963 2095.115365 0.682607703 0.7296726273 -0.04030608879
54.90679812 399.1333559 2066.109727 -0.03301177603 -0.9749809706 0.2198234056
41.21153521 398.2773411 2060.290262 -0.03301177603 -0.9749809706 0.2198234056
26.174207 399.1178854 2062.192149 0.005284439947 -0.9809189336 0.1943453639
33.55229202 399.4649337 2065.385871 0.005284439947 -0.9809189336 0.1943453639
0.7962099278 396.1950884 2048.831929 0.01704514907 -0.9767125559 0.2138739021
23.82206518 398.2766098 2058.286441 0.01704514907 -0.9767125559 0.2138739021
-121.1053979 375.8288843 1985.711721 0.1519113646 -0.9281162153 0.3398870816
-139.8539415 371.1679035 1979.536294 0.1519113646 -0.9281162153 0.3398870816
-139.6218885 368.5223982 1972.250797 0.1244846974 -0.9215606096 0.3677357788
-134.3686081 369.8567823 1973.966555 0.1244846974 -0.9215606096 0.3677357788
-142.8717549 370.4548212 1979.003193 0.1164262959 -0.938045385 0.3263675432
-138.0102082 371.8193533 1980.524445 0.1164262959 -0.938045385 0.3263675432
-187.6937281 368.7662011 1999.786386 0.2002190419 -0.9638320455 0.1758980479
-190.5803502 367.9660638 1998.877945 0.2002190419 -0.9638320455 0.1758980479
-189.037274 367.4147528 1993.977988 0.1838478805 -0.9629306273 0.1973944371
-187.3061179 367.7857801 1994.578667 0.1838478805 -0.9629306273 0.1973944371
-170.6619134 374.1419413 2009.315936 0.1908373367 -0.9697621236 0.1521267057
-171.6061203 373.8932572 2009.012093 0.1908373367 -0.9697621236 0.1521267057
-168.0962132 373.9986527 2005.528225 0.1780088355 -0.9690456808 0.1710652598
-166.3655943 374.3872559 2006.119636 0.1780088355 -0.9690456808 0.1710652598
330.741368 213.0705643 2253.218923 -0.8946231498 -0.2136071162 -0.3924556278
330.514931 198.7440499 2260.470646 -0.8946231498 -0.2136071162 -0.3924556278
-18.27231647 392.7558882 2033.059235 -0.05017913862 -0.9729834765 0.2253557377
-20.48840891 392.7723794 2032.037981 -0.05017913862 -0.9729834765 0.2253557377
57.4635784 398.6266244 2064.358337 -0.04579567742 -0.9724473134 0.2285803548
69.69049841 399.16486 2069.669894 -0.04579567742 -0.9724473134 0.2285803548
77.84970636 397.5144533 2065.325154 -0.06909231085 -0.9636635855 0.258028577
76.72849722 397.4799052 2064.830481 -0.06909231085 -0.9636635855 0.258028577
73.09366863 398.8258866 2069.041861 -0.06281152853 -0.9707524466 0.23172052
75.47234076 398.8976774 2070.092093 -0.06281152853 -0.9707524466 0.23172052
323.5448973 266.9889901 2220.864173 -0.8686870136 -0.4151864711 -0.2701907969
324.9260734 265.9862823 2222.01018 -0.8686870136 -0.4151864711 -0.2701907969
325.9231774 248.9000687 2236.585542 -0.8728326841 -0.3639374866 -0.3251347589
325.7552075 255.7364854 2232.998973 -0.8728326841 -0.3639374866 -0.3251347589
323.8074021 -12.38456341 2343.884528 -0.869842559 0.1638235592 -0.4653340349
323.2924158 -13.58035794 2344.263091 -0.869842559 0.1638235592 -0.4653340349
-86.73406694 382.6619702 1990.719378 0.06461339235 -0.9378569333 0.3409537831
-88.52988373 382.3935145 1990.036487 0.06461339235 -0.9378569333 0.3409537831
-86.53342216 385.3403793 1998.365623 0.05463108448 -0.9525912569 0.2993081052
-89.05211892 385.0601801 1997.358394 0.05463108448 -0.9525912569 0.2993081052
-526.9722591 83.43731397 1982.344475 0.9654748464 -0.1934311564 0.1744783904
-524.3618373 93.43535395 1978.4045 0.9654748464 -0.1934311564 0.1744783904
51.42125496 -194.4732544 2321.155171 -0.07868555607 0.8607452364 -0.5029177082
54.56706587 -193.5748214 2322.1316 -0.07868555607 0.8607452364 -0.5029177082
-223.4649346 -240.1609995 2255.012822 0.02693413729 0.797715396 -0.6024323192
-217.7983782 -239.085029 2257.050122 0.02693413729 0.797715396 -0.6024323192
-202.6114007 -233.4683173 2263.208529 0.02229616586 0.7908886383 -0.6115537939
-216.870784 -237.7196775 2258.874417 0.02229616586 0.7908886383 -0.6115537939
-181.8850467 -230.1574348 2266.897933 -0.005762402032 0.7952792641 -0.6062158747
-196.9996871 -234.3464424 2262.140945 -0.005762402032 0.7952792641 -0.6062158747
-402.2778989 311.3548278 1975.60047 0.6242018912 -0.7794650436 0.05297400193
-404.5498615 309.1560502 1975.690997 0.6242018912 -0.7794650436 0.05297400193
-510.8969674 124.2014228 1956.987731 0.9270127294 -0.2733222475 0.2567924231
-507.3500594 133.4378201 1953.86677 0.9270127294 -0.2733222475 0.2567924231
-228.8930259 360.8454312 1977.815305 0.1147864283 -0.9770082988 0.1796631846
-235.2968716 359.8428782 1975.40336 0.1147864283 -0.9770082988 0.1796631846
-228.5611693 360.9483209 1977.842431 0.08110791724 -0.982535512 0.1674678281
-230.0019769 360.4356557 1977.447162 0.08110791724 -0.982535512 0.1674678281
-192.2923727 360.3002832 1970.147969 0.03906824826 -0.9643020787 0.2619068021
-213.7493899 358.3041872 1961.366581 0.03906824826 -0.9643020787 0.2619068021
-210.7799423 362.7641912 1989.600943 -0.01500225567 -0.9941781893 0.106698923
-211.7079846 362.8928794 1989.110745 -0.01500225567 -0.9941781893 0.106698923
-211.1181807 363.560972 1996.835407 -0.01795127503 -0.9975186525 0.0680756168
-213.6064942 363.471974 1995.743901 -0.01795127503 -0.9975186525 0.0680756168
-139.5643972 372.1875304 1983.034793 0.09988950721 -0.9467089311 0.3062095461
-143.0580719 371.5766838 1981.751738 0.09988950721 -0.9467089311 0.3062095461
-166.9632006 374.4606374 2007.178884 0.1809968668 -0.9694125883 0.1657690196
-166.2974761 374.6712617 2007.374996 0.1809968668 -0.9694125883 0.1657690196
-526.6836206 86.89992097 1984.848885 0.9640316538 -0.2107441914 0.1619563405
-529.6622053 78.30056292 1987.902523 0.9640316538 -0.2107441914 0.1619563405
-536.627249 48.30754265 2008.358268 0.9938597426 -0.08558466897 0.07012899836
-535.627823 53.26865844 2006.267992 0.9938597426 -0.08558466897 0.07012899836
329.2487727 180.7377229 2270.893077 -0.8898453679 -0.1551115144 -0.4290869833
328.6442297 172.3085935 2274.944293 -0.8898453679 -0.1551115144 -0.4290869833
85.34394818 -183.1106346 2334.81237 0.05428666386 0.87995398 -0.4719469792
86.75614963 -183.0338932 2335.418368 0.05428666386 0.87995398 -0.4719469792
86.77380845 -179.6693502 2341.441513 0.05419836974 0.8631312647 -0.5020627019
88.28369286 -179.4769754 2342.032788 0.05419836974 0.8631312647 -0.5020627019
-183.0565341 -233.7810601 2261.996441 9.503501801e-05 0.8133973903 -0.5817084118
-163.9335487 -229.6343733 2268.607031 9.503501801e-05 0.8133973903 -0.5817084118
-141.3807177 -230.5133871 2269.260639 0.01119668814 0.8413076744 -0.5404405898
-133.5084547 -228.2088992 2271.675262 0.01119668814 0.8413076744 -0.5404405898
-110.8831523 -229.5312062 2268.845618 -0.02599644611 0.8653298 -0.500528243
-126.0698279 -233.0133243 2263.692792 -0.02599644611 0.8653298 -0.500528243
-176.0229267 -217.7656377 2283.068662 0.06054192483 0.7540537121 -0.6540165706
-161.0519904 -214.0231152 2287.989201 0.06054192483 0.7540537121 -0.6540165706
85.36596531 397.2864525 2066.396659 -0.03577013202 -0.9584565038 0.282986975
111.6556135 399.6158338 2077.215523 -0.03577013202 -0.9584565038 0.282986975
100.3965781 396.1269407 2066.959439 0.03350863736 -0.9399522783 0.3396570118
97.79985963 395.9149887 2065.881516 0.03350863736 -0.9399522783 0.3396570118
94.19919501 394.4803504 2063.409538 0.06449555263 -0.9317193271 0.3574065183
94.92539794 394.6086954 2063.675532 0.06449555263 -0.9317193271 0.3574065183
336.1272421 93.63346669 2298.767686 -0.9202174049 -0.2684551874 -0.2848363391
336.0182022 94.66504898 2298.188241 -0.9202174049 -0.2684551874 -0.2848363391
303.196651 -67.57454726 2345.663243 -0.7803070841 0.4151257055 -0.4677515398
299.9608585 -72.45582477 2346.690477 -0.7803070841 0.4151257055 -0.4677515398
284.680169 -89.9770149 2355.7705 -0.7113315321 0.4858606102 -0.5078847497
286.1657481 -86.60280569 2354.717118 -0.7113315321 0.4858606102 -0.5078847497
273.5731028 -124.4996033 2328.043106 -0.6557962014 0.6584735519 -0.3692477809
273.3601813 -125.8663672 2328.647492 -0.6557962014 0.6584735519 -0.3692477809
198.6719841 -156.0486092 2357.063753 -0.2976423288 0.8036257237 -0.5153588462
199.3467216 -155.7299808 2357.208535 -0.2976423288 0.8036257237 -0.5153588462
-491.9249449 162.0821701 1935.806716 0.8870931423 -0.3319986173 0.3206909337
-487.6674561 171.5298927 1932.902007 0.8870931423 -0.3319986173 0.3206909337
-17.13189935 392.3001854 2030.888751 -0.06696168642 -0.9706225068 0.2311018864
-27.47877564 392.0324264 2026.29754 -0.06696168642 -0.9706225068 0.2311018864
-18.02391635 -203.8325184 2307.809795 -0.09646558036 0.8230957623 -0.5596496743
-18.29739359 -203.8828543 2307.710654 -0.09646558036 0.8230957623 -0.5596496743
-14.18583237 -204.9609812 2305.091876 -0.1147087612 0.8297863102 -0.5461653409
-14.37528017 -205.170628 2305.112928 -0.1147087612 0.8297863102 -0.5461653409
-24.40796317 -215.0328862 2289.943576 -0.06359810725 0.880145835 -0.4704238407
-14.40367157 -212.5907041 2293.261876 -0.06359810725 0.880145835 -0.4704238407
328.8385921 164.8549275 2276.996969 -0.8929529894 -0.1463242723 -0.4257043176
328.099278 154.7799507 2281.831567 -0.8929529894 -0.1463242723 -0.4257043176
94.96890456 -183.4030044 2334.88316 0.006161881937 0.8814158292 -0.4723009287
84.02993275 -185.7609164 2331.094433 0.006161881937 0.8814158292 -0.4723009287
336.271678 22.67182871 2324.30636 -0.9249344366 0.01877810263 -0.3796625749
336.2436135 22.49822438 2324.382662 -0.9249344366 0.01877810263 -0.3796625749
333.4044551 9.517950553 2329.364124 -0.9107716084 0.08334264329 -0.4044120189
333.4110479 9.585316244 2329.332551 -0.9107716084 0.08334264329 -0.4044120189
-449.4216177 250.4129712 1939.39239 0.8078124058 -0.5373253351 0.2423233402
-446.012964 257.4908647 1937.316417 0.8078124058 -0.5373253351 0.2423233402
-216.4485526 361.648071 1978.992497 -0.003740983041 -0.9883991373 0.1518326393
-247.4968846 357.548272 1966.907772 -0.003740983041 -0.9883991373 0.1518326393
-251.9665964 357.5164041 1966.919161 0.01860757575 -0.9882397975 0.1517756925
-258.1843151 357.2796295 1964.19913 0.01860757575 -0.9882397975 0.1517756925
-259.1901106 355.6333029 1954.161076 0.01326297387 -0.9802441326 0.1973462288
-257.1153947 355.6804965 1955.085023 0.01326297387 -0.9802441326 0.1973462288
-162.4040199 374.4458807 2002.4074 0.1615295859 -0.9682856833 0.1906069999
-159.034945 375.2384434 2003.540217 0.1615295859 -0.9682856833 0.1906069999
-146.7863243 374.3046359 1992.523519 0.1185307691 -0.9603486916 0.2523506436
-150.0430865 373.7253997 1991.332508 0.1185307691 -0.9603486916 0.2523506436
-157.2667816 375.2027024 2002.01712 0.1546492447 -0.9677352051 0.1989275848
-157.6588768 375.1283478 2001.8761 0.1546492447 -0.9677352051 0.1989275848
329.0604779 228.7861833 2246.628901 -0.8862186994 -0.2921852112 -0.3595055204
328.6003805 234.5496136 2243.459694 -0.8862186994 -0.2921852112 -0.3595055204
-149.1359116 -223.2980916 2279.342814 0.04997265753 0.805231197 -0.5908514643
-154.0861506 -223.6488919 2277.260581 0.04997265753 0.805231197 -0.5908514643
-166.618542 -213.3281211 2288.154809 0.088374683 0.7505787415 -0.6548446138
-161.7665557 -212.7184008 2290.059211 0.088374683 0.7505787415 -0.6548446138
-24.73914283 -220.0097324 2280.431264 -0.06425683419 0.9037301527 -0.4232527264
-25.63820199 -220.1717459 2280.103558 -0.06425683419 0.9037301527 -0.4232527264
-25.10840328 -224.0382181 2270.929762 -0.07798345875 0.9210990065 -0.3814383311
-22.89287707 -223.6455166 2271.740679 -0.07798345875 0.9210990065 -0.3814383311
-120.1166349 -228.3524443 2269.500561 0.06848512015 0.87049016 -0.4873978556
-96.4184415 -223.8195121 2278.003792 0.06848512015 0.87049016 -0.4873978556
-117.3617917 -232.8410031 2258.285988 0.1758547171 0.9068175676 -0.3830887855
-117.8923609 -231.0849936 2257.141978 0.1758547171 0.9068175676 -0.3830887855
-91.88328549 -240.8337491 2245.309913 0.04846218628 0.9467812976 -0.3182084081
-89.10664247 -239.8566458 2246.077237 0.04846218628 0.9467812976 -0.3182084081
-58.44227779 -225.9139089 2272.259491 -0.07287760872 0.8935673396 -0.4429743377
-64.83868347 -229.2138542 2271.030423 -0.07287760872 0.8935673396 -0.4429743377
330.6178037 118.999683 2286.882412 -0.9012224186 -0.3533877993 -0.2508290562
331.8589071 113.1753549 2290.439815 -0.9012224186 -0.3533877993 -0.2508290562
89.4225408 398.0531828 2069.75658 -0.05605300946 -0.9622901556 0.2661873711
75.24184608 397.2397674 2063.693395 -0.05605300946 -0.9622901556 0.2661873711
102.5378505 398.3354073 2073.146942 0.02643328972 -0.9503528868 0.3100494666
114.7914563 399.9148422 2077.936145 0.02643328972 -0.9503528868 0.3100494666
185.1464818 -169.5951293 2338.30326 -0.2669863064 0.8609037293 -0.4330855355
183.8284561 -170.1226899 2337.971751 -0.2669863064 0.8609037293 -0.4330855355
173.9133671 -178.0391905 2327.269097 -0.193770931 0.9076081538 -0.3724248453
170.5034067 -178.9360142 2326.171122 -0.193770931 0.9076081538 -0.3724248453
156.7824052 -172.0509823 2345.494797 -0.1789323264 0.8561006525 -0.4848452282
166.2176601 -169.1620745 2348.32369 -0.1789323264 0.8561006525 -0.4848452282
160.0769086 -175.2805417 2338.710598 -0.1046669509 0.8997853859 -0.4235930697
156.092571 -176.4746369 2337.502742 -0.1046669509 0.8997853859 -0.4235930697
334.5258993 106.7479422 2289.685986 -0.9127558902 -0.3288696535 -0.2423250623
334.1656014 108.2717257 2288.739016 -0.9127558902 -0.3288696535 -0.2423250623
-26.38507018 390.2424402 2019.625679 -0.07243021372 -0.9616725757 0.2644611904
-31.7794376 390.1061125 2017.230363 -0.07243021372 -0.9616725757 0.2644611904
-66.44367374 388.3067678 2008.232953 -0.004796681266 -0.9637332677 0.2668242504
-56.7415411 389.8267809 2011.886602 -0.004796681266 -0.9637332677 0.2668242504
-56.7561017 392.8386603 2024.355609 -0.0004321553007 -0.9784916349 0.2062860481
-57.61444629 392.7784543 2023.994242 -0.0004321553007 -0.9784916349 0.2062860481
-22.49380008 -220.002086 2279.507838 -0.09105647474 0.9009183463 -0.4243287072
-23.65236127 -220.4113875 2279.188492 -0.09105647474 0.9009183463 -0.4243287072
-26.60834924 -219.9154156 2280.670728 -0.08323835755 0.8969765499 -0.4341709855
-25.21598471 -219.6230283 2281.156948 -0.08323835755 0.8969765499 -0.4341709855
45.3941578 -205.356715 2301.076498 -0.0811575946 0.907000263 -0.4132359711
43.3055994 -205.7725541 2300.335486 -0.0811575946 0.907000263 -0.4132359711
48.87181526 -196.9472464 2317.178459 -0.06593835759 0.8731151964 -0.4830341465
42.3503104 -198.5797017 2315.036133 -0.06593835759 0.8731151964 -0.4830341465
-114.9939151 367.1616954 1963.115926 0.1436931117 -0.8767608695 0.4589582414
-111.252403 368.4363541 1964.171446 0.1436931117 -0.8767608695 0.4589582414
-109.839758 378.8737313 1986.231271 0.156299326 -0.9220511387 0.3541076365
-112.5199222 377.9502261 1985.480521 0.156299326 -0.9220511387 0.3541076365
-118.9699917 371.7313931 1973.683723 0.1885496733 -0.8909569735 0.4130916267
-120.2237154 371.2755749 1973.344769 0.1885496733 -0.8909569735 0.4130916267
329.623559 106.0779665 2299.255671 -0.909505963 -0.1773646741 -0.3759530232
330.0662139 118.9131594 2292.868405 -0.909505963 -0.1773646741 -0.3759530232
239.1051705 -150.493171 2333.367361 -0.4845211476 0.7816075707 -0.3928471241
238.9182615 -150.9919534 2333.538015 -0.4845211476 0.7816075707 -0.3928471241
203.685753 -160.2390234 2346.973214 -0.3193374861 0.8261709366 -0.4641822417
205.8815292 -159.9046265 2347.805038 -0.3193374861 0.8261709366 -0.4641822417
329.3502196 141.1617917 2284.471906 -0.9033019204 -0.167420929 -0.3949884467
329.0295091 132.1345001 2288.959933 -0.9033019204 -0.167420929 -0.3949884467
329.6329949 149.9956951 2280.443762 -0.9023152761 -0.1595910932 -0.4004470321
329.8068985 154.3416389 2278.292039 -0.9023152761 -0.1595910932 -0.4004470321
330.7974255 128.3157623 2286.584235 -0.9124406173 -0.1682205027 -0.3730334868
330.8572485 132.2944149 2284.568941 -0.9124406173 -0.1682205027 -0.3730334868
328.9865789 152.8993876 2280.662944 -0.898213678 -0.1523798364 -0.4123015574
329.1514157 155.9910635 2279.151015 -0.898213678 -0.1523798364 -0.4123015574
336.6452136 35.84716802 2322.89084 -0.9268021147 -0.04709859393 -0.3725849737
337.4941809 40.87921705 2320.695385 -0.9268021147 -0.04709859393 -0.3725849737
337.5098621 44.64988328 2320.081799 -0.9268805205 -0.06595192508 -0.3695170421
337.5034014 46.30840686 2319.227363 -0.9268805205 -0.06595192508 -0.3695170421
337.6145831 52.64463147 2317.67718 -0.9265230833 -0.08982269092 -0.3653585367
337.431914 51.08256002 2318.395662 -0.9265230833 -0.08982269092 -0.3653585367
-35.78586756 389.6167219 2014.57419 -0.05239806394 -0.959225623 0.2777420515
-37.54359655 389.5224573 2013.819277 -0.05239806394 -0.959225623 0.2777420515
-52.04227612 390.595091 2015.093374 -0.02400128323 -0.9672737884 0.2525972221
-43.22295269 391.1320904 2018.848243 -0.02400128323 -0.9672737884 0.2525972221
-62.52421301 -226.3634855 2271.928365 -0.05246793261 0.8958152224 -0.4413187096
-52.6949132 -224.6220587 2275.526457 -0.05246793261 0.8958152224 -0.4413187096
-29.96626398 -220.1445815 2280.775762 -0.06644878385 0.8981223798 -0.4346961583
-36.38325153 -221.8297275 2278.708254 -0.06644878385 0.8981223798 -0.4346961583
-54.17013607 -216.3796609 2290.726727 -0.04509181824 0.8546032334 -0.517320057
-40.65464465 -213.1258982 2295.233033 -0.04509181824 0.8546032334 -0.517320057
127.6754412 -176.6390374 2343.642652 -0.1050504773 0.8603614537 -0.4987409811
122.6954221 -178.3111885 2342.225188 -0.1050504773 0.8603614537 -0.4987409811
100.1183781 -178.7623542 2343.822991 -0.004975056364 0.8595581589 -0.5110137183
102.6803379 -178.1505295 2344.679736 -0.004975056364 0.8595581589 -0.5110137183
-515.6223866 111.4242044 1960.241659 0.9340896241 -0.2507484934 0.254168777
-518.0847928 104.8988213 1962.466423 0.9340896241 -0.2507484934 0.254168777
261.73697 366.5961235 2132.84555 -0.595784961 -0.7976198028 0.09403685715
255.5150363 368.379005 2129.086704 -0.595784961 -0.7976198028 0.09403685715
302.5346019 326.6890246 2159.444246 -0.7894840607 -0.6131989542 -0.02649453635
300.4767899 329.7119538 2156.951828 -0.7894840607 -0.6131989542 -0.02649453635
320.6853866 277.7103059 2211.659808 -0.8543894598 -0.4687930502 -0.22416897
318.4139994 284.2069464 2207.286386 -0.8543894598 -0.4687930502 -0.22416897
319.3983532 285.9471705 2199.10421 -0.859311229 -0.4774941711 -0.1832580921
316.5000356 299.5480679 2190.796957 -0.859311229 -0.4774941711 -0.1832580921
45.79473871 -208.0109288 2294.671829 -0.09360329114 0.9181921364 -0.3849176855
32.95777386 -211.0878143 2290.384811 -0.09360329114 0.9181921364 -0.3849176855
28.57012364 -206.627893 2301.054516 -0.07921893935 0.8941029084 -0.4407996698
30.08090351 -206.2699687 2301.561208 -0.07921893935 0.8941029084 -0.4407996698
28.33689788 -206.9393475 2300.464016 -0.07851269744 0.8955416434 -0.4379964854
28.42887525 -206.9156401 2300.493879 -0.07851269744 0.8955416434 -0.4379964854
37.10363587 -212.2856987 2286.189712 -0.1225096745 0.9222439383 -0.3666844664
37.1362933 -212.2798064 2286.201612 -0.1225096745 0.9222439383 -0.3666844664
-104.5858554 378.6351139 1983.53744 0.130029813 -0.9208580518 0.3675767896
-104.3238383 378.7176434 1983.614815 0.130029813 -0.9208580518 0.3675767896
-98.16085355 385.3822457 2000.637691 0.09953725425 -0.9540730629 0.2825542881
-98.22532657 385.3606456 2000.619316 0.09953725425 -0.9540730629 0.2825542881
-82.90011625 386.968435 2002.913049 0.02387107115 -0.9621325313 0.2715348304
-83.01400104 386.9871533 2002.851392 0.02387107115 -0.9621325313 0.2715348304
-90.40142166 390.4826043 2018.811234 0.06074009479 -0.9795748556 0.1916865756
-90.38780577 390.4756182 2018.821043 0.06074009479 -0.9795748556 0.1916865756
324.038694 132.0699454 2289.755708 -0.8768974113 -0.3866350642 -0.2855945678
324.895307 127.8848138 2292.295833 -0.8768974113 -0.3866350642 -0.2855945678
326.7354518 129.1603422 2285.312699 -0.8818106592 -0.404191095 -0.2429804931
325.8779566 131.3960199 2283.773018 -0.8818106592 -0.404191095 -0.2429804931
327.6394499 110.7383497 2301.309868 -0.8999002725 -0.2212850897 -0.3757823952
327.536862 109.1719309 2302.06718 -0.8999002725 -0.2212850897 -0.3757823952
328.7734186 112.2765059 2297.556165 -0.9046639241 -0.2464498079 -0.3476286477
328.4895923 114.2048745 2296.436431 -0.9046639241 -0.2464498079 -0.3476286477
330.4056978 186.7584897 2265.95638 -0.8956299932 -0.1852153482 -0.404403499
330.7162997 193.0656963 2262.860221 -0.8956299932 -0.1852153482 -0.404403499
329.0660701 150.1993225 2281.629009 -0.8994806522 -0.16060923 -0.4063732664
328.5859659 139.7994519 2286.74887 -0.8994806522 -0.16060923 -0.4063732664
127.9576044 402.2895839 2084.935608 -0.01531070204 -0.958637557 0.2842175517
130.8355133 402.7381354 2086.02057 -0.01531070204 -0.958637557 0.2842175517
119.1324714 400.2292382 2078.687017 0.004728213938 -0.9519248667 0.3062951062
123.9498212 400.9470458 2080.520097 0.004728213938 -0.9519248667 0.3062951062
339.2292896 81.94007112 2299.057658 -0.9341397551 -0.2222419663 -0.2792694511
339.2778897 81.55642906 2299.27683 -0.9341397551 -0.2222419663 -0.2792694511
336.4661649 86.20799292 2303.950453 -0.9219120188 -0.2313278186 -0.310750173
336.7837424 83.75724157 2305.353803 -0.9219120188 -0.2313278186 -0.310750173
338.0332754 62.50510704 2313.399521 -0.9286165445 -0.1391250687 -0.3439702437
338.1526353 64.6473071 2312.354268 -0.9286165445 -0.1391250687 -0.3439702437
340.6344635 68.24091882 2303.567169 -0.9409226241 -0.1556644151 -0.3007211421
340.6138512 67.95517637 2303.704448 -0.9409226241 -0.1556644151 -0.3007211421
324.0501985 129.0298503 2293.624134 -0.8769549334 -0.3714345888 -0.3049367
323.4495269 132.0534612 2291.797302 -0.8769549334 -0.3714345888 -0.3049367
68.67923392 -196.1824038 2314.118299 -0.1409541401 0.8764369344 -0.460423968
73.16872447 -194.7904853 2315.455455 -0.1409541401 0.8764369344 -0.460423968
63.96589373 -197.3861063 2313.233096 -0.1256796954 0.8798016608 -0.4584251868
65.62434498 -196.8553491 2313.718543 -0.1256796954 0.8798016608 -0.4584251868
327.0518032 113.9326759 2300.748029 -0.8960558467 -0.2547306582 -0.3635879692
327.0336626 110.4895552 2302.507431 -0.8960558467 -0.2547306582 -0.3635879692
325.5182905 118.612768 2300.133652 -0.8872987513 -0.3042311227 -0.34661845
325.2822435 120.3896482 2299.113527 -0.8872987513 -0.3042311227 -0.34661845
330.3793649 129.1854325 2287.205802 -0.9103503147 -0.172568854 -0.3761413234
330.2350842 117.9539954 2292.906065 -0.9103503147 -0.172568854 -0.3761413234
-469.2574055 220.393164 1948.484549 0.8480893967 -0.4825334645 0.2188740067
-467.2900951 224.6331246 1947.206851 0.8480893967 -0.4825334645 0.2188740067
-458.4226213 238.8055019 1946.391185 0.8528174241 -0.4792879883 0.2073293643
-464.1691209 231.4681816 1947.531916 0.8528174241 -0.4792879883 0.2073293643
79.7071159 -193.4836185 2316.380214 -0.0823214979 0.895862543 -0.4366388383
79.93120154 -193.4734423 2316.4774 -0.0823214979 0.895862543 -0.4366388383
79.51745264 -195.6340708 2311.60274 -0.172697781 0.880654862 -0.4411603909
94.95627721 -191.2101605 2316.387287 -0.172697781 0.880654862 -0.4411603909
83.44644431 -188.7087528 2324.707816 -0.1151486165 0.8681478238 -0.4827630393
85.98960022 -187.9722584 2325.491962 -0.1151486165 0.8681478238 -0.4827630393
79.62965344 -191.6988872 2319.861844 -0.0833488826 0.8867809678 -0.4546124491
79.91259284 -191.6673034 2319.974936 -0.0833488826 0.8867809678 -0.4546124491
97.40971023 -187.5258521 2326.918876 -0.06073700547 0.8902405078 -0.4514231434
76.9885114 -191.926694 2319.845466 -0.06073700547 0.8902405078 -0.4514231434
116.0989465 -181.8500658 2324.914688 -0.26204312 0.8380828083 -0.4784878365
116.1725724 -181.7974085 2324.921302 -0.26204312 0.8380828083 -0.4784878365
92.08543952 -186.119004 2327.248651 -0.1415531444 0.8600041837 -0.4902606565
93.15173918 -185.8794292 2327.612969 -0.1415531444 0.8600041837 -0.4902606565
120.7848198 -177.5915267 2329.451326 -0.2851043571 0.8170533993 -0.5011379533
120.7956821 -177.5288472 2329.42411 -0.2851043571 0.8170533993 -0.5011379533
326.2718083 112.3193594 2303.940042 -0.8927472094 -0.2085716389 -0.3993748759
326.2088373 108.1956595 2306.028364 -0.8927472094 -0.2085716389 -0.3993748759
26.40202838 -209.9123068 2294.475071 -0.07296994038 0.9094176961 -0.4094323409
13.5879447 -213.1677723 2290.290193 -0.07296994038 0.9094176961 -0.4094323409
-12.73914171 -215.9461294 2286.436859 -0.07192075655 0.8969229615 -0.4362987576
1.816684624 -213.0235585 2291.588648 -0.07192075655 0.8969229615 -0.4362987576
12.9316838 -216.1807635 2282.4479 -0.09403682681 0.9204845514 -0.3792957499
6.239898677 -217.7358765 2280.188046 -0.09403682681 0.9204845514 -0.3792957499
13.04895136 -217.7773581 2278.699112 -0.08145492338 0.9309938646 -0.3558307457
10.41530311 -218.2826261 2277.754899 -0.08145492338 0.9309938646 -0.3558307457
14.56338925 -214.8888881 2286.165691 -0.07784716313 0.9180232751 -0.3888098322
12.32739931 -215.1832402 2285.29493 -0.07784716313 0.9180232751 -0.3888098322
36.64142644 -212.9981878 2284.52843 -0.1201986274 0.9258063837 -0.3583780544
35.84776577 -213.1900443 2284.264214 -0.1201986274 0.9258063837 -0.3583780544
-469.8977002 -176.3934976 2073.611937 0.7647309565 0.6443189402 -0.006298215268
-463.9285215 -183.5593433 2080.018875 0.7647309565 0.6443189402 -0.006298215268
-449.8224842 -200.1291986 2087.159792 0.7326474479 0.6806081384 -0.0005282228371
-457.5118198 -190.817183 2078.864876 0.7326474479 0.6806081384 -0.0005282228371
159.8024046 401.7960207 2094.494555 -0.1257835301 -0.9575418379 0.2594072709
152.9300789 402.5189915 2090.982626 -0.1257835301 -0.9575418379 0.2594072709
199.7401504 397.9371434 2122.915806 -0.325472259 -0.9382474515 0.1173010163
200.5438705 397.7808986 2123.363334 -0.325472259 -0.9382474515 0.1173010163
256.2512526 368.9189461 2150.166943 -0.5994660426 -0.8003195084 -0.01136434092
255.3426272 370.19531 2149.096405 -0.5994660426 -0.8003195084 -0.01136434092
-467.1554111 217.5081286 1932.666024 0.8677488753 -0.4094877233 0.2816588255
-471.2219908 210.0239764 1934.649887 0.8677488753 -0.4094877233 0.2816588255
-486.4333734 182.682245 1942.775276 0.880922729 -0.3877603789 0.2713245917
-484.8597125 185.7823411 1941.902878 0.880922729 -0.3877603789 0.2713245917
-482.3839467 189.6221874 1939.593821 0.8685439002 -0.4069596103 0.28286988
-474.9723344 202.748084 1936.242226 0.8685439002 -0.4069596103 0.28286988
94.55179026 -186.7171035 2325.637958 -0.1543073388 0.8624179968 -0.4821041837
94.36600244 -186.7137825 2325.551345 -0.1543073388 0.8624179968 -0.4821041837
118.3934053 -177.7138199 2330.536554 -0.2746325166 0.8170644311 -0.5069346075
118.4736792 -177.6968246 2330.564515 -0.2746325166 0.8170644311 -0.5069346075
124.0800408 -171.7015367 2336.524087 -0.3028775306 0.787356768 -0.5369678961
124.122682 -171.755292 2336.571173 -0.3028775306 0.787356768 -0.5369678961
-77.48253453 385.0697811 1997.025402 0.03021057694 -0.9488426513 0.3143007223
-79.85350386 384.8591139 1996.04999 0.03021057694 -0.9488426513 0.3143007223
-525.2582131 -78.68377375 2072.555572 0.934751119 0.3274305905 -0.1379476494
-516.7953963 -93.04840192 2083.797983 0.934751119 0.3274305905 -0.1379476494
-65.93746144 388.9553186 2010.645403 -0.007327742742 -0.9669760216 0.2547620022
-69.97487059 388.6964552 2008.933146 -0.007327742742 -0.9669760216 0.2547620022
-514.7426491 -100.6655796 2054.715775 0.9389855935 0.3429987461 0.02564985961
-517.6422912 -96.16203304 2051.078481 0.9389855935 0.3429987461 0.02564985961
-494.913852 -133.0134418 2023.582389 0.8509773458 0.4875728246 0.1952185894
-497.1409995 -129.5803953 2020.802029 0.8509773458 0.4875728246 0.1952185894
-480.0051973 -161.6305635 2052.054433 0.8054775851 0.5858873661 0.08911708137
-485.8138998 -152.6763501 2044.80269 0.8054775851 0.5858873661 0.08911708137
-481.1110353 -161.5900233 2078.824905 0.8207976324 0.5703015689 -0.03236305277
-483.0692067 -158.5134041 2076.35046 0.8207976324 0.5703015689 -0.03236305277
