# .PCD v0.7 - Point Cloud Data file format
VERSION 0.7
FIELDS x y z
SIZE 4 4 4
TYPE F F F
COUNT 1 1 1
WIDTH 1325
HEIGHT 1
VIEWPOINT -0 -0 -0 1 0 0 0
POINTS 1325
DATA ascii
-5.3177999e-14 133.72009 -69.562805
-4.6983285e-14 115.66428 -62.699039
-4.5612355e-14 114.16967 -59.927589
-5.2220581e-14 130.47957 -68.727272
-4.8331903e-14 120.95931 -63.51022
-4.8791019e-14 121.41119 -64.46273
-5.7764076e-14 130.63188 -82.704605
-5.6548638e-14 128.66447 -80.593132
-5.0237321e-14 113.98485 -71.74852
-4.830101e-14 109.97124 -68.802284
-5.6998087e-14 128.68448 -81.709862
-5.2325308e-14 118.87008 -74.66095
-5.2191568e-14 117.81937 -74.824745
-4.6594056e-14 107.16361 -65.858124
-5.9931071e-14 134.62282 -86.239655
-5.0180553e-14 115.11591 -71.069206
-4.6572833e-14 110.33683 -64.29821
-5.6919252e-14 129.06947 -81.329536
-4.9546806e-14 114.61007 -69.721352
-6.4548552e-14 144.85126 -92.9534
-5.2765907e-14 118.56197 -75.911324
-5.497751e-14 126.08263 -77.882141
-5.8191191e-14 116.56496 -98.976891
-6.4405837e-14 138.26285 -97.85199
-6.6157664e-14 145.84427 -96.489792
-5.815243e-14 115.84659 -99.734543
-6.5563277e-14 145.08521 -95.789108
-6.2102904e-14 127.97994 -99.84568
-6.0600904e-14 126.28986 -97.928787
-6.5337486e-14 137.69365 -100.07832
-6.6698322e-14 140.82224 -100.79064
-6.1261909e-14 124.93962 -100.11529
-6.6219626e-14 144.74158 -97.320755
-6.4977944e-14 138.55383 -98.808357
-5.4355825e-14 120.29417 -79.851692
-5.7105809e-14 113.27998 -97.447762
-6.0316051e-14 132.9986 -89.176346
-5.8314668e-14 124.97631 -89.923386
-6.1690968e-14 135.06764 -92.216934
-5.5858116e-14 120.00444 -85.807236
-5.1839067e-14 110.17159 -80.826744
-5.594555e-14 120.21069 -85.9235
-5.798055e-14 116.81841 -97.088066
-6.3440132e-14 138.15594 -95.614365
-5.951141e-14 132.22061 -86.949928
-4.800029e-14 106.88631 -69.764885
-5.8313116e-14 120.79169 -94.237976
-5.8245455e-14 125.19707 -89.43486
-4.8381363e-14 107.21179 -70.86367
-5.9342112e-14 126.23676 -92.490562
-5.3030307e-14 117.23666 -78.017616
-5.9894764e-14 123.80167 -97.08551
-6.1912396e-14 135.08368 -93.034111
-5.7839699e-14 120.61269 -92.640282
-6.3571009e-14 142.19392 -91.938087
-5.3559452e-14 111.5868 -85.843163
-5.7457674e-14 118.43868 -93.446449
-5.3633574e-14 114.74408 -82.862488
-5.5201144e-14 118.46651 -84.921463
-6.4522667e-14 143.83968 -93.822121
-5.6211183e-14 123.10725 -83.93309
-5.4446959e-14 110.8894 -89.904846
-5.0821916e-14 110.85722 -76.28907
-5.9198523e-14 123.45557 -94.821381
-5.4000319e-14 116.97552 -81.939507
-5.6805919e-14 117.38808 -92.077179
-6.0904976e-14 134.73497 -89.601013
-5.7258797e-14 124.67081 -86.263245
-4.8346208e-14 107.9693 -69.949203
-5.4479719e-14 113.00381 -87.845146
-5.282603e-14 117.72025 -76.749184
-6.2734045e-14 140.18744 -90.858398
-5.5911947e-14 116.53615 -89.590782
-5.7510752e-14 128.6026 -83.152504
-4.9505349e-14 107.70004 -74.591599
-5.5130298e-14 121.44497 -81.579575
-5.6220219e-14 125.12308 -81.885864
-5.583447e-14 114.99301 -90.892281
-5.83715e-14 117.62019 -97.732231
-6.1615989e-14 136.50136 -90.454407
-5.8101968e-14 117.63524 -96.701866
-5.7326783e-14 119.95982 -91.383133
-5.3036873e-14 114.57453 -80.790878
-6.0387229e-14 130.74425 -91.771835
-5.4660266e-14 118.43166 -82.920921
-5.6741362e-14 114.97298 -94.327591
-5.6148232e-14 113.75985 -93.34684
-5.4972882e-14 120.71163 -81.744019
-4.9395506e-14 106.79012 -75.117462
-6.036507e-14 130.49875 -91.941879
-6.2492803e-14 134.23195 -96.145897
-6.5402687e-14 136.18716 -101.31851
-5.4544941e-14 109.83205 -91.140549
-5.8459592e-14 116.15971 -101.02335
-5.6032605e-14 110.50922 -95.692932
-6.185389e-14 125.93608 -101.26408
-6.4275449e-14 132.86113 -101.6169
-5.2652381e-14 105.94459 -85.579056
-5.1488697e-14 105.67491 -81.955986
-5.2678778e-14 106.35654 -85.597153
-5.2316421e-14 106.5856 -84.419548
-4.8657306e-14 105.58428 -73.051292
-5.0896367e-14 104.60808 -80.258575
-5.0700289e-14 107.04498 -79.27874
-6.5870628e-14 133.6212 -104.14034
-6.6587137e-14 133.76669 -105.34672
-6.5935592e-14 134.28459 -103.82783
-6.5624379e-14 133.67822 -103.65628
-6.793024e-14 141.63835 -102.67751
-6.4309479e-14 128.33975 -104.73304
-5.937289e-14 117.34402 -102.90553
-6.1645648e-14 123.21794 -103.22028
-6.1460467e-14 122.91002 -103.0839
-5.2677657e-14 105.8126 -85.65976
-6.0017902e-14 118.36879 -104.0703
-6.1443567e-14 121.16959 -104.94401
-5.2087661e-14 102.86153 -84.099815
-5.1233249e-14 103.61198 -81.330399
-5.1569985e-14 102.60838 -82.535721
-4.9229755e-14 100.44699 -75.628616
-5.3262746e-14 103.34586 -87.664688
-5.1293869e-14 102.59003 -81.682716
-6.3300866e-14 124.86935 -105.893
-5.3933139e-14 103.57614 -89.628975
-6.073008e-14 118.81393 -106.09061
-6.1672205e-14 120.53526 -106.50506
-6.9754485e-14 136.04901 -109.57363
-6.4081864e-14 123.73889 -108.34641
-6.3645073e-14 122.00568 -108.76373
-6.556014e-14 127.02409 -108.61592
-6.3640086e-14 121.92245 -108.80984
-6.4723583e-14 127.53209 -106.92076
-6.2531672e-14 123.02885 -106.17549
-5.1891447e-14 100.55802 -83.804077
-6.7168446e-14 126.58288 -111.54067
-6.5027919e-14 123.52611 -110.25507
-6.6514536e-14 125.41749 -111.58382
-5.39845e-14 100.07894 -90.11554
-5.1142562e-14 98.051025 -81.848732
-5.0252276e-14 96.806862 -79.361923
-5.0294624e-14 96.984756 -79.460152
-5.1984828e-14 96.424767 -84.675201
-5.0987636e-14 98.292282 -81.338623
-5.3386782e-14 101.56976 -88.070999
-6.6650495e-14 125.52916 -111.79398
-6.5834165e-14 122.31042 -112.91782
-6.8801999e-14 123.90167 -116.25951
-6.984549e-14 124.53436 -117.38744
-6.6614479e-14 121.37281 -114.66685
-7.0247471e-14 129.17374 -115.00031
-7.1784538e-14 128.02509 -117.99734
-7.0840117e-14 127.27901 -117.08784
-6.4639944e-14 118.65282 -113.72063
-5.2177789e-14 94.307503 -85.554344
-5.521122e-14 97.216278 -94.055794
-5.2261245e-14 91.828461 -86.227928
-5.5649119e-14 99.727402 -94.923737
-5.275848e-14 95.200531 -87.124008
-5.6432825e-14 100.53713 -97.10302
-6.8293834e-14 121.75964 -117.1076
-6.9226322e-14 122.41899 -118.04462
-5.3649749e-14 92.109764 -90.273903
-5.3500739e-14 91.683228 -89.907288
-5.4785291e-14 94.148216 -93.265465
-6.8163635e-14 117.12042 -119.81926
-6.2433416e-14 114.42991 -113.5642
-7.13494e-14 122.48897 -120.93567
-7.1409241e-14 119.96107 -122.55933
-6.960151e-14 121.63974 -119.0451
-6.8492602e-14 117.21885 -120.21252
-6.2478316e-14 111.45653 -115.16889
-6.2840988e-14 112.0796 -115.37488
-6.9107304e-14 116.84029 -121.23773
-6.822416e-14 116.67809 -120.16373
-5.3482219e-14 90.364235 -90.074104
-5.4623793e-14 92.161186 -93.125832
-5.3284173e-14 88.001869 -89.883018
-5.532478e-14 93.266281 -94.999466
-5.5080371e-14 90.712959 -94.703911
-5.6844036e-14 96.256783 -98.970634
-5.5904175e-14 92.188683 -96.90638
-5.5269845e-14 82.456718 -96.585266
-5.5303886e-14 86.20813 -96.129036
-5.5360274e-14 84.299736 -96.577599
-5.6103122e-14 91.096878 -97.751579
-5.4695042e-14 86.634995 -94.277557
-5.4315208e-14 83.614418 -93.609818
-5.6794755e-14 89.926498 -99.961205
-5.8147531e-14 95.776817 -103.13741
-5.759841e-14 92.072197 -102.15696
-5.7185634e-14 89.666435 -101.34286
-5.8302206e-14 93.67379 -104.18624
-5.8993941e-14 107.25779 -117.03956
-7.4055203e-14 113.44003 -129.62296
-6.6235923e-14 110.16529 -120.4616
-6.9645136e-14 116.14086 -122.15985
-6.5915833e-14 111.60052 -119.50536
-6.729485e-14 111.77486 -121.31827
-7.1994656e-14 113.1155 -127.08433
-6.3100505e-14 110.36861 -116.28826
-6.3256339e-14 110.16167 -116.61835
-7.069564e-14 115.63347 -123.89458
-5.9096811e-14 95.834534 -106.34222
-5.8714169e-14 92.831963 -105.63031
-5.7099873e-14 82.270432 -102.16224
-5.9581002e-14 96.628418 -107.92594
-5.8789846e-14 91.716377 -106.16938
-5.8743693e-14 95.094284 -105.32991
-5.6098274e-14 81.76564 -99.184891
-5.7926103e-14 90.932198 -103.43619
-5.6316591e-14 83.60112 -99.598206
-5.5826966e-14 76.329506 -99.073685
-5.6000665e-14 76.559128 -99.559509
-7.0924312e-14 106.41254 -127.98153
-6.4043687e-14 105.17691 -118.49406
-6.9660078e-14 106.71118 -126.286
-6.6029891e-14 106.53043 -121.17126
-7.6541861e-14 111.85242 -133.9077
-6.7231153e-14 108.76119 -121.84
-7.505828e-14 110.68752 -132.31081
-7.3560922e-14 108.76044 -131.0634
-7.7250807e-14 108.51588 -136.55847
-7.2996913e-14 107.86462 -130.67593
-6.9551414e-14 107.83897 -125.66796
-5.9310358e-14 89.910774 -108.17969
-5.7152945e-14 80.992935 -102.54101
-5.7064494e-14 75.498413 -102.87861
-5.7161707e-14 74.97345 -103.22699
-5.9221962e-14 92.003395 -107.52457
-5.8245448e-14 83.883369 -105.4929
-5.8311097e-14 85.578896 -105.50351
-5.9420202e-14 93.438744 -107.96037
-6.7527161e-14 101.02068 -123.75466
-6.2276098e-14 100.90878 -115.3693
-6.1945498e-14 101.79873 -115.1333
-6.259484e-14 102.05104 -116.23578
-7.5931361e-14 106.40924 -135.36
-6.9132139e-14 104.71809 -125.51078
-7.5066526e-14 106.62414 -133.92691
-7.5517595e-14 107.03671 -134.45438
-7.5345803e-14 102.82223 -135.9547
-6.9871172e-14 104.41787 -126.78428
-6.6045924e-14 103.73566 -121.13021
-6.4171663e-14 102.35806 -118.79735
-7.699808e-14 102.88679 -138.49341
-5.9805073e-14 89.125465 -109.88124
-5.8194145e-14 75.452126 -106.34774
-5.873651e-14 83.670181 -107.18861
-5.9146969e-14 87.363739 -108.0675
-5.7843704e-14 75.382652 -105.30124
-5.8592725e-14 80.74929 -107.03698
-6.0100328e-14 94.428108 -110.25434
-6.7201161e-14 87.612732 -123.31969
-7.199795e-14 84.274117 -131.85184
-6.2080664e-14 95.588676 -114.24831
-6.6972612e-14 77.68206 -122.82955
-6.4066902e-14 80.297905 -117.66602
-6.1631242e-14 94.549934 -113.43771
-6.8042319e-14 89.139694 -124.83337
-6.356968e-14 85.134987 -116.81881
-6.6682045e-14 81.929871 -122.34624
-7.3946593e-14 86.367966 -135.34654
-7.5354084e-14 88.849426 -137.87875
-6.1847845e-14 70.916275 -113.62839
-6.2546797e-14 74.325684 -114.90392
-7.530997e-14 90.72924 -137.81561
-6.8631265e-14 96.941315 -125.949
-6.3213486e-14 97.983894 -116.28967
-7.3416689e-14 94.475052 -134.46812
-6.6254233e-14 82.282074 -121.58574
-6.3149186e-14 80.500656 -116.03004
-7.5723011e-14 88.493156 -138.53413
-6.9091963e-14 89.909447 -126.71285
-6.3060898e-14 88.783989 -115.94113
-6.4840142e-14 85.784416 -119.09132
-6.2873263e-14 84.699989 -115.57246
-7.4773555e-14 91.443695 -136.86432
-6.5114275e-14 91.445114 -119.62742
-6.3617724e-14 73.223289 -116.80583
-7.2035043e-14 96.14653 -132.01643
-7.118717e-14 95.712822 -130.4998
-7.3967694e-14 90.375114 -135.41739
-6.4174252e-14 94.356499 -117.97408
-7.3459319e-14 94.455269 -134.54402
-6.1740225e-14 77.448723 -113.49046
-7.4263444e-14 89.124779 -135.9348
-6.2244602e-14 77.347794 -114.38969
-6.5235354e-14 94.161057 -119.86599
-6.00079e-14 86.234344 -110.47196
-6.3639361e-14 79.657738 -116.89777
-6.3882683e-14 79.801048 -117.33317
-6.1636826e-14 83.004997 -113.35201
-7.0648335e-14 82.613495 -129.42972
-6.4881897e-14 82.274567 -119.13675
-6.0951759e-14 79.654839 -112.10175
-7.4744179e-14 90.516106 -136.80418
-7.7713199e-14 94.252907 -142.13335
-6.0683053e-14 84.835892 -111.66518
-6.5012692e-14 78.207428 -119.33644
-7.3323753e-14 94.550079 -134.3029
-6.4911503e-14 85.59771 -119.21711
-7.0577848e-14 88.229752 -129.35048
-6.4513133e-14 94.660408 -118.58132
-6.876744e-14 94.071213 -126.16823
-7.2756058e-14 88.264366 -133.23775
-6.9079203e-14 94.18396 -126.7255
-6.7292268e-14 92.050392 -123.51904
-6.8738099e-14 87.532669 -126.06168
-7.0860933e-14 82.515511 -129.80829
-6.2537398e-14 94.221153 -115.05201
-6.8209131e-14 93.209259 -125.16478
-6.8230584e-14 91.03994 -125.18509
-6.8456966e-14 83.396004 -125.52572
-7.0465674e-14 96.897713 -129.29703
-6.4456971e-14 98.769653 -118.87993
-6.252764e-14 99.493835 -115.58311
-7.2197402e-14 97.095093 -132.54611
-7.8711397e-14 95.647263 -143.7981
-7.6276598e-14 101.03452 -137.84276
-7.556902e-14 101.01083 -136.68588
-7.9073006e-14 99.385551 -143.0441
-7.6295381e-14 100.21283 -138.17035
-7.7992822e-14 100.32688 -140.92505
-6.8159359e-14 98.872437 -125.25334
-7.8840112e-14 98.370041 -143.02711
-7.8566954e-14 95.429382 -143.63884
-7.72553e-14 95.878815 -141.31613
-6.4012821e-14 70.210419 -118.19722
-6.2057293e-14 66.345245 -114.9859
-6.7709049e-14 73.97773 -125.09274
-5.9295864e-14 64.377388 -109.63672
-6.8503925e-14 72.060852 -127.21196
-5.8977251e-14 62.795807 -109.3356
-6.7513689e-14 70.413231 -125.51355
-6.4044656e-14 69.316544 -118.47276
-6.2948385e-14 64.942108 -117.1876
-6.2192656e-14 67.087814 -115.09732
-5.8835302e-14 65.330154 -108.44566
-7.373968e-14 79.71801 -136.43805
-7.1140481e-14 74.876106 -132.10074
-7.9922261e-14 85.608833 -148.06783
-7.3686649e-14 78.043427 -136.71724
-7.798488e-14 82.936729 -144.61627
-8.0815773e-14 92.193962 -148.34789
-6.909634e-14 79.025063 -126.79472
-7.9123035e-14 87.094131 -146.01672
-7.4686967e-14 82.193939 -137.83771
-7.6563247e-14 85.405235 -141.01865
-8.0835864e-14 90.799156 -148.73143
-6.7053696e-14 74.429169 -123.60067
-7.2030753e-14 83.052399 -132.01286
-7.4333497e-14 82.966209 -136.90167
-7.2176579e-14 81.085815 -132.80203
-7.2684744e-14 80.762863 -133.95522
-6.4032885e-14 72.621765 -117.65703
-5.9605885e-14 66.741844 -109.73676
-7.9930474e-14 90.831314 -146.80969
-6.3365342e-14 71.534515 -116.5118
-7.0594172e-14 79.856369 -129.75766
-7.0345083e-14 77.52037 -129.80235
-8.0077695e-14 87.282104 -147.98878
-6.8402295e-14 75.679428 -126.14572
-6.360302e-14 71.622322 -116.99275
-6.9822566e-14 78.28093 -128.51184
-6.7578091e-14 67.807381 -126.23022
-8.2215579e-14 80.719353 -153.95468
-6.9079508e-14 71.962547 -128.44368
-6.0909706e-14 62.21685 -113.53485
-7.5118988e-14 74.728714 -140.45323
-8.1499301e-14 81.540504 -152.27448
-6.9982004e-14 71.344902 -130.46788
-8.1639902e-14 79.741798 -152.96892
-8.0395834e-14 79.48336 -150.42575
-8.1336935e-14 82.443016 -151.73405
-7.3111412e-14 73.133118 -136.61171
-8.1852968e-14 85.416306 -152.15076
-7.8244533e-14 78.277069 -146.19708
-7.670973e-14 79.018036 -142.82355
-7.0991607e-14 72.666885 -132.28407
-6.9409065e-14 69.63327 -129.65129
-7.4646845e-14 78.556412 -138.61388
-7.8716879e-14 77.319336 -147.39777
-8.0690995e-14 81.758789 -150.53609
-7.7203875e-14 76.306107 -144.46045
-7.7578731e-14 77.799919 -144.91145
-6.4307487e-14 60.452282 -120.98295
-6.5161594e-14 62.069145 -122.41923
-7.863738e-14 75.688164 -147.58426
-6.4403066e-14 59.554581 -121.3708
-6.0397867e-14 60.793396 -112.77821
-7.8907285e-14 75.751328 -148.13243
-6.1442381e-14 60.302265 -115.05446
-6.677259e-14 63.233902 -125.52522
-7.2155715e-14 68.637756 -135.58549
-6.9407425e-14 67.149422 -130.18179
-6.0327387e-14 56.227016 -113.59313
-6.1578245e-14 59.081825 -115.59407
-6.0663673e-14 58.505371 -113.81293
-7.5985212e-14 74.026306 -142.41708
-7.2277701e-14 71.040207 -135.33337
-6.5837133e-14 60.693348 -124.11002
-8.091825e-14 75.166916 -152.41205
-8.0221203e-14 76.522011 -150.69711
-7.8912063e-14 72.696777 -148.75661
-7.1963147e-14 67.79969 -135.3598
-6.714813e-14 62.287262 -126.50285
-7.1794167e-14 64.173134 -135.73897
-7.2562324e-14 68.376465 -136.4839
-8.2586424e-14 75.672554 -155.76277
-7.667799e-14 69.208778 -144.83414
-7.5996663e-14 71.891335 -142.88496
-8.0885927e-14 77.643486 -151.8474
-7.055941e-14 62.851917 -133.44913
-8.1054663e-14 72.083694 -153.31404
-7.66226e-14 72.351654 -144.08786
-7.3269719e-14 65.201614 -138.58597
-7.5717495e-14 67.563095 -143.17714
-6.6767291e-14 60.796204 -126.01435
-6.9655978e-14 61.919327 -131.76688
-6.8196493e-14 61.935951 -128.74309
-6.6072371e-14 60.804134 -124.5746
-6.6313708e-14 54.944706 -126.19504
-6.862087e-14 58.645325 -130.25142
-7.3914379e-14 64.013084 -140.14522
-6.9123858e-14 58.501911 -131.31435
-7.5532957e-14 64.096664 -143.46321
-7.1225977e-14 60.054844 -135.35208
-6.9434713e-14 58.34259 -131.98454
-6.6386485e-14 57.207386 -125.91965
-6.0741058e-14 52.015839 -115.2679
-7.0459155e-14 60.903343 -133.61322
-6.2467257e-14 50.73687 -119.06364
-6.8039033e-14 56.608994 -129.43578
-6.0901716e-14 51.379547 -115.71838
-7.0595222e-14 60.739613 -133.92424
-7.7351083e-14 67.662483 -146.53769
-6.8035577e-14 59.065018 -128.96704
-6.6347847e-14 52.965347 -126.62293
-8.1513457e-14 64.480194 -155.66006
-7.4546001e-14 63.055916 -141.62601
-8.3301869e-14 67.248245 -158.83125
-7.2383004e-14 59.360649 -137.85297
-7.668913e-14 63.451118 -145.95044
-7.3968826e-14 58.916748 -141.18497
-7.355155e-14 58.173798 -140.46249
-7.0556117e-14 55.860336 -134.73425
-7.66399e-14 59.616741 -146.53752
-8.3975734e-14 67.088547 -160.24194
-8.179604e-14 62.98378 -156.50812
-7.6663658e-14 59.731293 -146.56567
-6.4323479e-14 52.244026 -122.60056
-8.1843637e-14 63.385036 -156.53374
-7.6110396e-14 61.131313 -145.17978
-7.8014872e-14 63.488361 -148.66275
-7.7919062e-14 65.002098 -148.19464
-7.6937751e-14 62.401585 -146.64868
-8.1437922e-14 65.898064 -155.25073
-8.0109625e-14 62.875313 -153.06891
-7.6169871e-14 57.845604 -145.87274
-7.3460125e-14 54.821579 -140.8412
-6.6608069e-14 52.039108 -127.31302
-6.7829626e-14 50.130562 -130.12273
-6.3061501e-14 46.260887 -121.02887
-6.7720765e-14 49.044983 -130.08012
-7.7282446e-14 58.86161 -147.97597
-6.5347758e-14 47.010803 -125.57221
-6.3179686e-14 49.215145 -120.78123
-6.0990391e-14 44.75869 -117.04925
-6.0916644e-14 46.642944 -116.58685
-6.4546296e-14 46.203594 -124.06961
-6.6244326e-14 51.536282 -126.65363
-6.6719206e-14 51.76466 -127.58533
-6.1497655e-14 48.373688 -117.48656
-7.0587755e-14 55.279919 -134.90131
-6.566236e-14 46.982231 -126.21848
-6.579939e-14 45.611179 -126.71392
-7.0136212e-14 48.259613 -135.11887
-8.4039953e-14 56.8228 -162.05344
-7.1613742e-14 49.9939 -137.85089
-7.6942359e-14 54.787296 -147.93474
-8.2107803e-14 56.322575 -158.20145
-7.0390328e-14 50.911121 -135.21687
-8.1632814e-14 56.168877 -157.25935
-7.8090468e-14 58.003677 -149.76237
-6.8716537e-14 47.524078 -132.34669
-6.9905426e-14 49.798416 -134.40616
-7.1528117e-14 50.548294 -137.5891
-8.1053552e-14 60.415314 -155.40979
-6.7307359e-14 47.945385 -129.41309
-7.9291134e-14 57.616966 -152.26627
-8.2270792e-14 59.729225 -157.99474
-7.3522575e-14 50.923466 -141.5876
-7.2980352e-14 53.549347 -140.0695
-7.2811542e-14 51.662094 -140.02426
-7.6980726e-14 53.83379 -148.16347
-6.1422838e-14 41.700306 -118.40858
-7.3949161e-14 49.851685 -142.61768
-6.7294843e-14 46.076538 -129.67767
-7.5498649e-14 49.53186 -145.80246
-7.5336391e-14 50.630466 -145.31647
-8.100048e-14 54.312973 -156.26369
-7.4324322e-14 49.555359 -143.42012
-6.3966153e-14 43.979591 -123.23457
-6.7770957e-14 43.085682 -131.07042
-6.4742028e-14 44.198746 -124.77499
-7.4059282e-14 49.940777 -142.828
-7.3719012e-14 48.373226 -142.36311
-6.7106571e-14 45.983627 -129.30957
-7.9266997e-14 52.62529 -152.99359
-6.2235834e-14 38.785202 -120.47293
-7.2251077e-14 48.7957 -139.32884
-7.6602529e-14 48.162018 -148.22597
-7.7547682e-14 45.302532 -150.52644
-7.7678342e-14 48.907864 -150.29752
-7.5975738e-14 47.986752 -146.9836
-6.7599782e-14 40.218567 -131.12312
-7.9919497e-14 48.040161 -154.94411
-8.3249048e-14 53.023048 -160.98978
-7.7923447e-14 48.56345 -150.83981
-8.4063195e-14 51.779064 -162.80472
-7.8510827e-14 50.400917 -151.77533
-7.2935696e-14 42.549015 -141.58502
-7.1366402e-14 41.960709 -138.49487
-8.1037424e-14 49.949894 -156.94164
-8.2109924e-14 48.542847 -159.30084
-8.2552902e-14 54.50164 -159.38116
-7.5969924e-14 47.926487 -146.98009
-7.611804e-14 47.61853 -147.32141
-7.9145891e-14 46.77879 -153.55359
-7.991146e-14 50.848061 -154.54399
-6.609476e-14 40.391109 -128.05884
-7.0365615e-14 41.976696 -136.47075
-6.5638623e-14 37.068726 -127.56304
-8.0936878e-14 45.925636 -157.27882
-6.943064e-14 39.445473 -134.90685
-6.8847285e-14 39.692234 -133.703
-6.282814e-14 35.783028 -122.06256
-6.765406e-14 35.830505 -131.7688
-6.1974209e-14 33.857395 -120.577
-6.5539791e-14 35.838676 -127.51292
-8.3770827e-14 47.542854 -162.78641
-7.0682819e-14 40.823895 -137.26006
-7.2386324e-14 41.116127 -140.65295
-6.9342149e-14 39.462151 -134.72673
-6.4573286e-14 37.033707 -125.42333
-6.2072153e-14 32.47699 -120.94107
-8.1506694e-14 46.086628 -158.40608
-7.3716003e-14 40.585159 -143.3931
-6.9768932e-14 29.675827 -136.65819
-6.564565e-14 28.154305 -128.55634
-6.8299506e-14 31.068668 -133.57964
-7.3138408e-14 34.986897 -142.87682
-7.2452528e-14 31.50634 -141.84814
-6.2924424e-14 26.119102 -123.3113
-6.5954891e-14 27.574093 -129.23259
-6.367108e-14 31.406603 -124.283
-6.7236642e-14 32.718231 -131.28938
-6.6265434e-14 27.447763 -129.86661
-6.7495434e-14 29.94487 -132.08145
-6.7526341e-14 32.32885 -131.90768
-6.2476574e-14 27.72473 -122.25628
-6.2449313e-14 28.930183 -122.08258
-6.2433599e-14 30.646147 -121.88151
-6.9577489e-14 33.366348 -135.91025
-8.0362298e-14 39.960579 -156.81815
-8.536745e-14 43.744781 -166.43303
-8.0606623e-14 41.315544 -157.15233
-8.4903811e-14 43.366138 -165.54562
-8.2635538e-14 46.279034 -160.65372
-8.3905105e-14 41.887001 -163.71075
-8.062927e-14 39.017838 -157.46323
-8.3342052e-14 40.601952 -162.72839
-7.5083257e-14 38.356098 -146.40144
-7.1869675e-14 38.024441 -139.98582
-8.5460935e-14 40.892563 -166.95024
-8.6125314e-14 48.744858 -167.37752
-8.3373792e-14 43.436504 -162.46471
-7.3255218e-14 38.193493 -142.74892
-7.3926318e-14 37.919876 -144.12831
-7.2004943e-14 36.500317 -140.43353
-7.9219603e-14 40.126011 -154.50415
-8.6388314e-14 46.180401 -168.20193
-8.5270529e-14 43.796165 -166.23244
-8.6228151e-14 46.92099 -167.79472
-8.5925543e-14 41.257263 -167.8412
-6.5362781e-14 21.001328 -128.58856
-7.2320019e-14 26.483789 -142.02998
-6.9790785e-14 24.036781 -137.17834
-6.3348673e-14 23.148813 -124.41045
-8.3137436e-14 31.205042 -163.22142
-6.6445899e-14 25.024149 -130.43774
-8.192933e-14 30.329306 -160.88148
-6.5693233e-14 21.447399 -129.21274
-7.5054919e-14 27.401144 -147.40892
-6.5348633e-14 23.45414 -128.37196
-8.0134013e-14 29.961672 -157.3325
-7.2253916e-14 26.833534 -141.87141
-7.7910578e-14 27.509266 -153.09058
-7.9310378e-14 29.219961 -155.74835
-6.6637884e-14 21.083645 -131.12289
-8.3469859e-14 34.735531 -163.56039
-7.1971224e-14 30.643814 -140.96788
-8.5331529e-14 33.90897 -167.35875
-7.4885017e-14 31.127731 -146.74509
-7.5654523e-14 30.716343 -148.32169
-8.2173851e-14 32.013577 -161.2274
-7.3691711e-14 30.821266 -144.38931
-7.3823956e-14 28.773117 -144.84692
-7.5688567e-14 33.635983 -148.11412
-8.5817177e-14 34.408596 -168.2821
-7.022887e-14 29.436096 -137.59998
-7.3789289e-14 32.057808 -144.46761
-8.0569042e-14 33.638058 -157.867
-8.1669223e-14 34.402027 -159.9935
-8.6904862e-14 37.73637 -170.1416
-6.9004034e-14 28.666739 -135.22488
-8.7206399e-14 34.624027 -171.03796
-6.988919e-14 27.368893 -137.11627
-7.0121297e-14 28.059839 -137.51489
-8.2792639e-14 34.875317 -162.19385
-7.3112455e-14 31.488777 -143.16875
-8.4140255e-14 23.237389 -165.79077
-6.4007122e-14 18.257721 -126.08165
-6.6696425e-14 18.680189 -131.39915
-6.3673066e-14 18.573723 -125.40093
-6.7265793e-14 17.35763 -132.60234
-6.8629157e-14 17.079735 -135.32506
-7.1491891e-14 18.83683 -140.91382
-6.6068394e-14 18.672329 -130.15237
-6.5015816e-14 18.779497 -128.0562
-6.6098778e-14 15.852951 -130.36728
-6.8842169e-14 19.124378 -135.636
-6.9125857e-14 20.191412 -136.14088
-7.0517817e-14 18.816677 -138.98051
-7.3921528e-14 18.551737 -145.75441
-7.5942765e-14 20.417572 -149.66608
-7.7690275e-14 25.216295 -152.82033
-8.2643446e-14 26.16716 -162.60989
-7.7569075e-14 23.131588 -152.73196
-8.2168423e-14 27.256269 -161.58447
-7.148893e-14 22.968855 -140.64133
-6.8399232e-14 20.944576 -134.63974
-7.3429395e-14 22.713062 -144.52261
-7.5658819e-14 23.766766 -148.88301
-8.1987985e-14 28.147079 -161.15997
-8.1329895e-14 26.958834 -159.93719
-6.673198e-14 20.689203 -131.3398
-8.1437766e-14 26.693501 -160.17136
-6.433157e-14 19.213343 -126.67001
-8.654284e-14 26.59218 -170.34047
-8.3700191e-14 29.549709 -164.46526
-6.8662239e-14 21.451546 -135.12607
-8.618958e-14 26.28385 -169.65991
-8.0033853e-14 25.795433 -157.44275
-8.6008132e-14 31.760996 -168.89706
-8.1248017e-14 29.217167 -159.6086
-7.0721742e-14 21.944883 -139.18933
-8.3587535e-14 15.538789 -165.09094
-6.380336e-14 10.246456 -126.06429
-7.1635087e-14 9.90098 -141.59352
-7.8563214e-14 12.684427 -155.22952
-7.4769801e-14 12.417661 -147.72195
-7.0266174e-14 12.259119 -138.80363
-6.5731708e-14 10.541316 -129.87544
-6.5565175e-14 10.449992 -129.54846
-6.6548546e-14 8.0188246 -131.57686
-6.4417872e-14 9.6137505 -127.30269
-6.6933153e-14 12.324016 -132.19739
-7.8746654e-14 13.953215 -155.55127
-8.5846518e-14 15.677377 -169.56236
-7.8740955e-14 14.084122 -155.53568
-6.4458835e-14 11.532398 -127.32076
-7.6209303e-14 14.819443 -150.49181
-8.6392428e-14 19.422043 -170.4608
-8.0764239e-14 18.729916 -159.32704
-8.2736362e-14 16.933271 -163.33507
-8.6749645e-14 19.152115 -171.18387
-7.9678438e-14 16.590673 -157.2841
-7.4004137e-14 14.28777 -146.14313
-8.383863e-14 20.597744 -165.33086
-7.8305045e-14 16.734203 -154.55089
-8.6646978e-14 21.620625 -170.85091
-8.4798074e-14 22.58976 -167.13077
-8.4177789e-14 21.275183 -165.96852
-8.7837527e-14 22.75511 -173.15433
-8.7452859e-14 19.82622 -172.54422
-6.8442688e-14 14.608948 -135.08882
-7.8684733e-14 15.88743 -155.34875
-7.025153e-14 14.744084 -138.67168
-8.5565357e-14 21.851856 -168.69217
-8.5939319e-14 16.80591 -169.69849
-8.5291e-14 17.510868 -168.37489
-6.6955867e-14 13.526941 -132.19463
-8.3571462e-14 8.677762 -165.2757
-8.2718879e-14 12.241951 -163.47501
-7.9138979e-14 12.862932 -156.36446
-6.9612359e-14 7.4746671 -137.66327
-7.9744974e-14 9.7802649 -157.66158
-8.2945559e-14 12.992938 -163.90044
-7.4944648e-14 7.8147278 -148.21481
-7.4684413e-14 8.0938168 -147.69057
-8.4657331e-14 14.699313 -167.23755
-8.0950532e-14 11.892773 -159.98325
-7.8780657e-14 9.5443926 -155.75885
-8.7558216e-14 10.380319 -173.11922
-8.7368087e-14 13.614992 -172.64105
-8.43417e-14 11.96432 -166.69821
-7.9220999e-14 8.7770185 -156.65518
-8.6017124e-14 10.238122 -170.07108
-7.7984257e-14 9.6005564 -154.1796
-7.7871927e-14 11.266917 -153.9048
-7.3532008e-14 7.8487778 -145.41556
-7.6245061e-14 10.403605 -150.7094
-7.5518354e-14 5.3221574 -149.38985
-6.860481e-14 4.1781387 -135.71977
-7.069419e-14 5.1531863 -139.84419
-8.2794503e-14 6.7559309 -163.7744
-6.9438216e-14 5.8669105 -137.35068
-6.7456111e-14 1.6372542 -133.47423
-8.1409102e-14 7.529551 -161.02406
-8.3079831e-14 6.6683254 -164.34004
-7.5615004e-14 4.1560163 -149.59392
-6.7347244e-14 5.7212858 -133.21402
-6.8654582e-14 4.6708288 -135.81287
-7.5582207e-14 7.0885468 -149.49686
-6.4552503e-14 1.9201217 -127.72459
-6.7203269e-14 1.6175413 -132.97403
-7.8993046e-14 7.2150121 -156.24588
-7.7857595e-14 5.7945004 -154.01428
-3.1534749e-14 -140.9951 -0.78257787
-3.3638169e-14 -150.82408 -0.50948691
-3.1584998e-14 -141.95468 -0.20837373
-2.8155914e-14 -125.02691 -1.3617381
-3.3077423e-14 -148.03778 -0.71230328
-3.3697264e-14 -150.03439 -1.3366215
-7.9699681e-14 6.1097741 -166.7218
-6.3145629e-14 1.5983506 -147.3795
-6.1640261e-14 2.9785225 -170.63162
-5.1866155e-14 1.4126631 -174.54741
-6.387054e-14 1.9466757 -150.33263
-6.7568943e-14 2.3017848 -145.53473
-6.4035955e-14 0.66669613 -132.01572
-6.4414952e-14 1.8252059 -147.19931
-4.7377965e-14 0.32609767 -171.21129
-6.4880311e-14 3.4412386 -168.54633
-7.2412474e-14 5.1434679 -172.45107
-4.7574483e-14 0.17669845 -168.60574
-5.8296805e-14 0.34211862 -142.6248
-6.4018764e-14 2.6992061 -160.45386
-7.7509051e-14 6.2098331 -173.89973
-5.5633165e-14 1.736446 -169.13087
-5.8613813e-14 1.482844 -157.72353
-5.5140917e-14 0.1431309 -148.17216
-6.8881465e-14 3.5916958 -160.09071
-7.8558118e-14 5.7073412 -164.1122
-6.8927686e-14 1.9445094 -136.95866
-3.5834132e-14 -153.63397 -5.9739962
-3.6806268e-14 -160.26474 -4.2370157
-3.0579461e-14 -132.68378 -3.8964581
-3.6830927e-14 -158.69475 -5.5314054
-3.5156851e-14 -156.66188 -1.2953906
-3.6790795e-14 -157.58264 -6.2486558
-3.7641362e-14 -163.06801 -4.9723854
-3.2228184e-14 -140.14479 -3.8648171
-3.6375471e-14 -156.65933 -5.5203533
-3.4800538e-14 -152.76387 -3.0621493
-3.9639238e-14 -173.1046 -4.1674833
-3.252742e-14 -143.07356 -2.646595
-3.4558097e-14 -153.01968 -2.0250249
-3.6469397e-14 -162.82823 -1.0956802
-3.4455887e-14 -149.24869 -4.5745735
-3.8963031e-14 -174.80589 -0.51410151
-3.8922939e-14 -167.07916 -6.3249059
-3.3508583e-14 -144.78906 -4.7257648
-3.9221003e-14 -169.21802 -5.7108593
-3.7772096e-14 -167.27968 -2.1823697
-3.3510253e-14 -147.67459 -2.5096369
-3.0274272e-14 -124.78034 -8.8104057
-3.6335464e-14 -152.34135 -8.6531677
-3.7177398e-14 -157.37746 -7.7220588
-3.0086421e-14 -125.48625 -7.6407409
-3.2845136e-14 -139.17442 -6.7079248
-2.9837691e-14 -127.9315 -4.9547186
-3.2898512e-14 -136.87206 -8.6226482
-3.3880471e-14 -142.15012 -7.9851213
-3.6326983e-14 -153.14072 -8.022542
-3.4308978e-14 -147.34418 -5.5304766
-2.9953453e-14 -124.90292 -7.6281638
-3.2096118e-14 -137.46423 -5.4507055
-3.1463683e-14 -131.95708 -7.4482374
-3.6391165e-14 -154.11514 -7.5069647
-3.9939572e-14 -169.16714 -8.2303219
-3.4895741e-14 -145.50981 -8.9050398
-6.7189269e-14 -3.7572472 -166.86835
-5.5832123e-14 -0.83621645 -156.0303
-6.5054448e-14 -1.8042474 -145.21915
-6.8905073e-14 -2.3182292 -142.23895
-5.298125e-14 -1.4512907 -172.14474
-6.1407178e-14 -0.34411287 -134.44569
-7.8122174e-14 -5.1626692 -157.65376
-6.4406122e-14 -2.8508146 -161.54967
-7.0659312e-14 -2.709455 -143.07539
-5.7772146e-14 -0.43984699 -145.37437
-7.2160139e-14 -5.1601639 -173.3501
-4.6570807e-14 -0.17986 -171.2982
-6.3887765e-14 -1.0889945 -138.30597
-5.4161435e-14 -0.45537758 -155.1185
-6.2954836e-14 -3.3530133 -172.39438
-4.9690026e-14 -0.20508623 -163.42029
-7.4475846e-14 -5.0328856 -165.46193
-7.6286545e-14 -4.4475012 -152.50681
-6.417455e-14 -2.29195 -154.35373
-4.8878958e-14 -0.36686504 -167.8203
-7.1309068e-14 -3.5133307 -152.59056
-7.1621718e-14 -4.9792247 -141.68176
-7.3868198e-14 -4.9533305 -146.12807
-6.49237e-14 -0.97579962 -128.46957
-6.6815531e-14 -4.361218 -132.17661
-7.3301296e-14 -4.9204187 -145.00648
-6.6228551e-14 -3.3803658 -131.02567
-6.3142315e-14 -4.6802135 -124.90343
-6.5862721e-14 -0.99633783 -130.32776
-6.8338943e-14 -4.6034012 -135.18895
-7.536393e-14 -5.6751084 -149.08037
-7.4882449e-14 -5.8244286 -148.12584
-6.3362686e-14 -3.555846 -125.3519
-6.6922508e-14 -1.3709186 -132.42108
-6.500885e-14 -4.7310677 -128.59694
-7.9218479e-14 -6.0588117 -156.7047
-4.2006502e-14 -172.0206 -13.028667
-4.0413666e-14 -165.27084 -12.706247
-4.2590968e-14 -171.73093 -15.19721
-4.1350089e-14 -169.49182 -12.70842
-4.1414151e-14 -168.67743 -13.526142
-3.9786622e-14 -160.85442 -13.883165
-3.8933039e-14 -160.77328 -11.089773
-4.2266853e-14 -172.08376 -13.852201
-4.1223911e-14 -165.6741 -15.116022
-3.8827814e-14 -158.64195 -12.317593
-3.748755e-14 -152.85504 -12.125944
-3.6172884e-14 -149.41986 -10.276903
-3.4512202e-14 -141.23497 -10.791312
-4.2596616e-14 -171.92091 -15.075294
-4.0570612e-14 -167.75334 -11.391072
-3.937887e-14 -160.18163 -13.018675
-3.8082432e-14 -157.84937 -10.413194
-3.8975615e-14 -159.98091 -11.819338
-3.4558931e-14 -143.28577 -9.4276066
-3.3967072e-14 -139.44676 -10.294232
-3.6308874e-14 -150.28925 -10.08721
-3.5886953e-14 -141.15034 -15.374654
-3.2092286e-14 -130.64626 -10.542475
-3.2263431e-14 -124.589 -15.482237
-3.2104859e-14 -130.91086 -10.392338
-3.2207262e-14 -130.3866 -11.106716
-3.6871385e-14 -148.72688 -13.120653
-3.2559496e-14 -128.61948 -13.537788
-3.5448156e-14 -139.62302 -15.041953
-3.2766365e-14 -132.84688 -11.15888
-3.6928553e-14 -147.70403 -14.047375
-3.1498696e-14 -125.0408 -12.651287
-4.1322387e-14 -164.97859 -15.946711
-3.2814629e-14 -131.65886 -12.175858
-3.5222097e-14 -140.54138 -13.637697
-3.6680748e-14 -144.88467 -15.274242
-6.3449558e-14 -11.964207 -125.30678
-7.2568071e-14 -10.411852 -143.42535
-7.3454826e-14 -10.91775 -145.16576
-7.3050744e-14 -12.43028 -144.3154
-6.3670416e-14 -8.2387447 -125.86687
-6.4297349e-14 -8.7640371 -127.09181
-7.7568763e-14 -13.23279 -153.24107
-7.2783441e-14 -10.701283 -143.84259
-7.7100618e-14 -13.499588 -152.30472
-6.703908e-14 -10.75956 -132.45871
-8.4496449e-14 -15.890882 -166.88029
-6.9996329e-14 -10.415539 -138.32956
-7.3371966e-14 -13.125711 -144.92899
-6.5972984e-14 -7.8042107 -130.4435
-8.6907146e-14 -16.33815 -171.64218
-7.111673e-14 -13.06913 -140.4623
-6.8677093e-14 -8.5016031 -135.77847
-8.3177639e-14 -11.938246 -164.39325
-7.5410659e-14 -10.687581 -149.04768
-8.6617433e-14 -12.98222 -171.17403
-8.7596312e-14 -10.698527 -173.18468
-8.4961769e-14 -12.838413 -167.899
-7.3120709e-14 -10.254662 -144.52534
-7.589569e-14 -7.3948083 -150.11182
-6.6802324e-14 -6.5911922 -132.12491
-7.9453839e-14 -10.417767 -157.06488
-8.4401602e-14 -9.9032745 -166.88156
-7.9528682e-14 -11.81148 -157.16937
-7.5446119e-14 -10.032229 -149.1385
-7.1703324e-14 -7.708271 -141.79773
-8.2278998e-14 -9.0549355 -162.70374
-6.6239162e-14 -7.2789249 -130.98782
-8.3520261e-14 -9.8065748 -165.13882
-7.6514431e-14 -9.506444 -151.27113
-8.4963524e-14 -13.360492 -167.88608
-7.9403701e-14 -9.8393049 -156.98373
-3.578395e-14 -136.68498 -18.225876
-3.9681827e-14 -148.9169 -22.063597
-3.922716e-14 -147.93213 -21.309374
-3.7595828e-14 -140.50586 -21.303295
-3.6501316e-14 -136.34903 -20.72654
-4.261068e-14 -160.78935 -23.087454
-4.1586885e-14 -156.85126 -22.582539
-3.5475915e-14 -133.79532 -19.256367
-3.4194659e-14 -125.51878 -20.946644
-4.0820947e-14 -152.3969 -23.25078
-3.4361257e-14 -128.80438 -19.194456
-3.3580591e-14 -127.82498 -17.405998
-3.4105619e-14 -128.9689 -18.272263
-3.8318913e-14 -144.98409 -20.483025
-3.4178122e-14 -126.41145 -20.275232
-3.338371e-14 -127.58357 -16.951084
-4.3918628e-14 -173.5452 -18.232498
-4.2865756e-14 -167.68491 -19.008825
-3.771731e-14 -147.17703 -16.99799
-3.6301925e-14 -139.45778 -17.928455
-4.0642186e-14 -156.70644 -19.652121
-4.0496079e-14 -155.16818 -20.276543
-4.4226209e-14 -171.5914 -20.618149
-4.2911177e-14 -167.19579 -19.504084
-3.9578092e-14 -152.49933 -19.214056
-3.9959494e-14 -152.02136 -20.786343
-4.4555502e-14 -168.56647 -23.837294
-3.7610953e-14 -147.81319 -16.201164
-4.5253125e-14 -171.79921 -23.786308
-3.8695606e-14 -148.35809 -19.315512
-4.06707e-14 -161.02106 -16.66934
-3.6599874e-14 -143.07108 -16.315573
-3.8838063e-14 -150.37245 -18.340004
-3.884179e-14 -152.81221 -16.613327
-4.287078e-14 -168.00381 -18.797771
-3.7351592e-14 -142.78806 -18.944801
-4.062288e-14 -156.88736 -19.460838
-7.8012581e-14 -21.519312 -153.71608
-6.4334409e-14 -14.678752 -126.92782
-7.8194294e-14 -20.250488 -154.1465
-6.4005814e-14 -18.311022 -126.07614
-7.8010887e-14 -20.080915 -153.79158
-6.7211326e-14 -17.858055 -132.46675
-8.1478979e-14 -23.188656 -160.50845
-7.3882815e-14 -20.107376 -145.59225
-6.8552768e-14 -17.12701 -135.17078
-6.7096299e-14 -17.622147 -132.25127
-7.803993e-14 -22.221764 -153.7319
-8.2433734e-14 -22.210278 -162.45811
-7.3058658e-14 -18.176598 -144.06143
-6.3100939e-14 -18.521208 -124.26765
-6.7705661e-14 -19.8032 -133.34181
-7.1307489e-14 -15.909299 -140.70638
-8.3817569e-14 -21.095728 -165.263
-8.7991748e-14 -20.870598 -173.55907
-7.8792407e-14 -16.972914 -155.50563
-7.5976219e-14 -18.931246 -149.81398
-8.5181401e-14 -22.291382 -167.90715
-6.5744732e-14 -13.006789 -129.81819
-6.9301668e-14 -15.006857 -136.77277
-8.4362035e-14 -18.657154 -166.47122
-8.1088612e-14 -16.973312 -160.06277
-8.3296942e-14 -22.476604 -164.15747
-8.0376366e-14 -20.015047 -158.48999
-8.3061657e-14 -19.022703 -163.87129
-8.3253601e-14 -19.906933 -164.20596
-8.3135511e-14 -16.883469 -164.12985
-8.6225027e-14 -19.187138 -170.14085
-8.4931099e-14 -19.334415 -167.56516
-6.8686268e-14 -13.804306 -135.61436
-7.7437724e-14 -15.96508 -152.86981
-7.6854586e-14 -16.221169 -151.69908
-6.6516854e-14 -13.650713 -131.31686
-5.7040005e-14 -99.010063 -99.067551
-5.6724712e-14 -98.886337 -98.164284
-5.3307202e-14 -86.565811 -90.187485
-5.4722171e-14 -88.992859 -93.935402
-5.5506682e-14 -93.771713 -95.446175
-5.3181072e-14 -88.296806 -89.531654
-5.4139066e-14 -92.197449 -91.696205
-5.6257052e-14 -93.828873 -97.657051
-5.4489995e-14 -94.604561 -92.336761
-5.5084873e-14 -89.664421 -94.90258
-5.2453579e-14 -92.950592 -86.603714
-5.5446692e-14 -98.141449 -94.5839
-5.3887186e-14 -93.441963 -90.769989
-5.1857265e-14 -91.603813 -85.067726
-5.5001248e-14 -98.561523 -93.190613
-5.375368e-14 -95.869934 -89.955406
-5.5408958e-14 -90.427345 -95.744263
-5.2765474e-14 -96.260696 -86.986877
-5.7362467e-14 -93.758751 -101.07581
-5.5597833e-14 -85.393227 -97.120018
-5.5616187e-14 -88.477005 -96.719444
-5.4637118e-14 -83.800095 -94.529884
-5.4392736e-14 -84.027557 -93.777748
-5.51366e-14 -82.164215 -96.239746
-5.6512886e-14 -92.485062 -98.762894
-5.2920426e-14 -96.912361 -87.378128
-5.7324141e-14 -91.333824 -101.40415
-5.5718549e-14 -103.08645 -94.859558
-5.3344139e-14 -99.427742 -88.30101
-5.3421291e-14 -101.49528 -88.188217
-5.1225605e-14 -96.334038 -82.393967
-5.3311193e-14 -100.18221 -88.074532
-5.2594268e-14 -99.194893 -86.065544
-5.302e-14 -101.66133 -87.018295
-5.5677061e-14 -81.542099 -97.969315
-5.7119091e-14 -88.11972 -101.42055
-5.8733353e-14 -94.062721 -105.46361
-5.6708215e-14 -84.396172 -100.67109
-5.6902867e-14 -84.363968 -101.25335
-5.542618e-14 -82.236298 -97.136337
-5.2632594e-14 -101.47549 -85.915489
-5.3198795e-14 -102.3634 -87.53112
-5.7549119e-14 -85.188629 -103.13166
-5.5144213e-14 -105.4932 -93.088135
-5.3471249e-14 -103.83657 -88.208366
-4.9968794e-14 -99.740524 -78.029716
-5.0551811e-14 -99.892151 -79.810127
-5.2560817e-14 -102.92688 -85.537338
-5.1747452e-14 -100.92338 -83.344429
-5.127372e-14 -103.62523 -81.439102
-5.9182219e-14 -94.785172 -106.88946
-6.4873074e-14 -19.911238 -127.69652
-6.6887901e-14 -22.238585 -131.53238
-6.8185671e-14 -22.270126 -134.1158
-7.4093197e-14 -27.666904 -145.47223
-6.7935491e-14 -23.506317 -133.52237
-7.2495971e-14 -27.529058 -142.30031
-6.581654e-14 -21.646467 -129.44313
-7.7521851e-14 -28.340675 -152.25218
-6.8311642e-14 -24.964811 -134.15984
-7.3677718e-14 -26.854336 -144.70679
-6.2884539e-14 -22.210625 -123.55769
-8.0608765e-14 -29.980228 -158.27704
-6.3802235e-14 -22.412912 -125.3707
-6.4239399e-14 -23.961739 -126.12282
-7.2874988e-14 -24.67149 -143.27498
-7.6249303e-14 -23.903309 -150.04834
-8.6928471e-14 -27.145786 -171.06747
-8.4203301e-14 -28.622051 -165.53474
-6.498264e-14 -19.502731 -127.94475
-8.5555559e-14 -24.682955 -168.51532
-7.1169551e-14 -22.57683 -140.03436
-8.301095e-14 -23.995907 -163.50063
-7.384419e-14 -22.382042 -145.37253
-8.1099725e-14 -25.416784 -159.59213
-8.4077351e-14 -28.953142 -165.25975
-8.2978668e-14 -29.65344 -163.02147
-8.701768e-14 -30.122572 -171.02673
-8.2825355e-14 -27.569946 -162.86911
-7.7879001e-14 -27.107889 -153.05725
-8.3195949e-14 -28.860756 -163.5121
-7.4795713e-14 -24.894941 -147.08226
-8.3070696e-14 -28.546488 -163.28583
-8.2295322e-14 -28.947374 -161.71304
-8.6183055e-14 -28.990936 -169.44839
-8.4507156e-14 -26.025631 -166.32999
-8.3565723e-14 -26.068081 -164.45294
-3.6413005e-14 -125.53383 -27.754841
-3.9986301e-14 -141.93787 -27.771196
-3.7277303e-14 -130.40622 -27.157537
-3.4768327e-14 -123.12007 -24.333349
-3.6537512e-14 -131.05508 -24.465614
-3.7343711e-14 -134.20331 -24.836718
-3.7370904e-14 -129.17247 -28.263573
-4.2673428e-14 -152.55157 -28.928123
-4.093921e-14 -145.32405 -28.432461
-4.6488031e-14 -165.61655 -31.901155
-4.1886525e-14 -150.20996 -28.079844
-4.0579495e-14 -143.70909 -28.406631
-4.0952119e-14 -146.99846 -27.359013
-3.7064756e-14 -127.58638 -28.38224
-3.4263719e-14 -124.19627 -22.076061
-3.7578502e-14 -135.58197 -24.637882
-3.898872e-14 -141.40071 -25.059546
-3.5884182e-14 -131.21107 -22.337933
-4.2706378e-14 -158.9245 -24.675217
-4.6929135e-14 -169.20969 -30.824398
-4.3884909e-14 -162.83018 -25.682669
-4.5561079e-14 -168.02129 -27.364592
-4.5630173e-14 -170.73918 -25.719687
-3.6095432e-14 -130.60419 -23.413307
-4.1993688e-14 -155.6754 -24.673389
-4.5834044e-14 -165.68843 -29.814375
-4.539501e-14 -169.12323 -26.091423
-4.4102874e-14 -162.3817 -26.670578
-3.7417914e-14 -135.08995 -24.473316
-4.378853e-14 -158.27498 -28.500233
-4.5295771e-14 -168.8929 -25.939119
-4.3157969e-14 -161.60649 -24.249689
-4.6558094e-14 -171.48586 -28.10705
-3.8540958e-14 -141.03584 -23.910664
-4.2817942e-14 -155.18172 -27.586111
-3.9909875e-14 -144.61819 -25.734201
-5.4740162e-14 -106.65141 -91.743561
-5.7663665e-14 -79.043053 -104.29462
-5.6505314e-14 -77.854317 -100.95232
-5.6484067e-14 -75.403519 -101.15481
-5.6766339e-14 -76.802132 -101.84884
-5.6903809e-14 -78.877907 -102.03539
-5.8862651e-14 -89.269348 -106.77718
-5.5076596e-14 -107.77896 -92.786743
-5.955881e-14 -93.224197 -108.46627
-5.9472609e-14 -91.809006 -108.41891
-4.8530041e-14 -104.11257 -72.887154
-5.0945867e-14 -106.26322 -80.169556
-5.02952e-14 -105.04475 -78.308121
-4.9007456e-14 -104.4936 -74.333176
-4.8458599e-14 -103.70801 -72.725128
-5.3442639e-14 -108.03648 -87.766273
-5.1538933e-14 -105.63722 -82.137802
-5.5174371e-14 -109.70423 -93.029404
-5.7819404e-14 -76.983421 -105.05979
-4.9940517e-14 -106.81567 -76.961823
-5.8540107e-14 -79.661072 -106.99847
-5.7747074e-14 -73.301788 -105.21658
-5.9298127e-14 -87.563896 -108.52811
-5.8730026e-14 -81.155502 -107.42794
-5.7557813e-14 -70.63649 -104.90055
-5.7385594e-14 -72.208107 -104.23259
-5.8558559e-14 -73.848152 -107.60719
-5.0451298e-14 -107.2015 -78.539703
-5.5310269e-14 -110.45926 -93.510666
-8.3429791e-14 -32.651318 -163.67703
-7.5136383e-14 -33.05257 -147.06572
-7.1347876e-14 -28.92152 -139.88474
-7.6448328e-14 -29.836578 -149.99106
-8.0826723e-14 -35.138962 -158.2403
-7.6048759e-14 -32.925842 -148.90096
-7.1253977e-14 -30.277306 -139.56912
-8.6193246e-14 -40.197594 -168.4872
-8.0649619e-14 -33.866886 -158.00644
-7.2529012e-14 -29.778889 -142.16418
-8.6834382e-14 -39.387501 -169.84489
-6.8118891e-14 -28.500702 -133.47169
-7.4111683e-14 -32.283756 -145.09053
-8.1510333e-14 -33.585094 -159.75308
-7.121912e-14 -28.899509 -139.62952
-7.8491426e-14 -35.522171 -153.53729
-7.3733893e-14 -31.674765 -144.39305
-8.4042162e-14 -36.662971 -164.52214
-6.7036783e-14 -26.945583 -131.45602
-8.4475111e-14 -39.326694 -165.13593
-8.4276661e-14 -39.365952 -164.73563
-6.2557327e-14 -29.614758 -122.23107
-7.0838348e-14 -34.283409 -138.34305
-6.5238044e-14 -30.90696 -127.46848
-7.3682285e-14 -33.935539 -144.06923
-7.3998872e-14 -34.767277 -144.62062
-6.2873047e-14 -28.803749 -122.94313
-8.2903675e-14 -38.637981 -162.05989
-6.3283851e-14 -30.592041 -123.58854
-6.3811071e-14 -26.961258 -125.00256
-7.7363897e-14 -36.33131 -151.2007
-6.5813444e-14 -28.500174 -128.85797
-6.6253819e-14 -29.336176 -129.65671
-7.4501142e-14 -33.542336 -145.74696
-6.4662509e-14 -27.00535 -126.70229
-7.5315236e-14 -35.128582 -147.21945
-4.7075347e-14 -159.77524 -37.521511
-4.6344889e-14 -157.77837 -36.623451
-4.2198382e-14 -147.74519 -30.669952
-4.4498151e-14 -151.78185 -34.97588
-4.8090899e-14 -164.30806 -37.615963
-4.2354249e-14 -147.96194 -30.999125
-4.9590039e-14 -170.1125 -38.338047
-4.7660016e-14 -162.13004 -37.743305
-3.6672363e-14 -125.69647 -28.437145
-4.2001172e-14 -145.14516 -31.78157
-4.9878585e-14 -170.09567 -39.222134
-4.64717e-14 -157.50174 -37.188877
-4.552777e-14 -155.17776 -35.859871
-4.1178791e-14 -142.20612 -31.224407
-4.700364e-14 -165.48276 -33.554596
-4.6425442e-14 -160.57916 -35.026993
-4.7559352e-14 -161.9843 -37.534489
-4.308345e-14 -149.0762 -32.473278
-4.2918434e-14 -146.8784 -33.418011
-4.7880248e-14 -165.06717 -36.479881
-4.1072553e-14 -142.41776 -30.763933
-3.9880557e-14 -130.75221 -34.721252
-4.8029712e-14 -161.31584 -39.3839
-3.9700814e-14 -132.33543 -33.182266
-4.1894849e-14 -140.64136 -34.388561
-4.2498594e-14 -141.54292 -35.601009
-4.4535332e-14 -148.08202 -37.466011
-3.7297083e-14 -125.02345 -30.723316
-3.9528439e-14 -133.90398 -31.674431
-3.6499639e-14 -121.79364 -30.419098
-4.3516646e-14 -145.29788 -36.223732
-3.6607924e-14 -124.81783 -28.815441
-3.8182765e-14 -127.25934 -31.920923
-4.1251965e-14 -139.01453 -33.521725
-3.7135134e-14 -123.36114 -31.301802
-3.8527788e-14 -126.31525 -33.542213
-5.0461432e-14 -168.29256 -42.129692
-5.1351931e-14 -165.9892 -46.193501
-4.2297746e-14 -137.11064 -37.814747
-4.0395977e-14 -131.58231 -35.716362
-4.3951188e-14 -142.23039 -39.441814
-5.0448866e-14 -165.6669 -43.746597
-4.2440769e-14 -137.84212 -37.773689
-4.878263e-14 -159.74939 -42.584473
-5.1787916e-14 -167.38152 -46.595863
-5.0357013e-14 -165.65752 -43.482979
-4.8436654e-14 -156.39252 -43.683598
-4.7151288e-14 -157.17491 -39.419106
-4.9242233e-14 -157.75748 -45.187725
-4.4079269e-14 -145.32892 -37.86602
-4.2425221e-14 -138.56406 -37.273369
-5.0521178e-14 -166.87714 -43.196522
-4.5843144e-14 -151.63689 -39.068714
-5.155941e-14 -166.18546 -46.678692
-4.5726748e-14 -146.91049 -41.704109
-4.0256938e-14 -129.8456 -36.402256
-4.9206851e-14 -155.76305 -46.317852
-4.3884841e-14 -139.73373 -40.804581
-4.0309176e-14 -127.43205 -38.032333
-4.6489207e-14 -146.89442 -43.918198
-4.5978121e-14 -146.70236 -42.569305
-4.1732192e-14 -132.47653 -39.045124
-4.8156591e-14 -153.0351 -44.965088
-3.9092878e-14 -124.91121 -36.077423
-4.0562643e-14 -129.90466 -37.255333
-4.4071365e-14 -138.2037 -42.270103
-3.9040755e-14 -120.10683 -38.850056
-4.0649541e-14 -125.75864 -40.026234
-4.4526445e-14 -141.91707 -41.31665
-4.2331064e-14 -131.9899 -41.058586
-4.279989e-14 -133.68216 -41.373833
-4.5993059e-14 -145.10941 -43.581009
-6.7360288e-14 -38.633595 -130.83853
-7.0332398e-14 -39.746117 -136.68521
-7.0540755e-14 -38.18227 -137.29367
-7.5187245e-14 -41.660187 -146.22386
-8.2294882e-14 -46.187603 -159.98007
-7.6960438e-14 -42.296436 -149.71538
-7.1134233e-14 -39.676556 -138.3073
-7.6932072e-14 -42.957939 -149.57828
-7.4387992e-14 -41.760967 -144.60321
-7.1423234e-14 -38.432766 -139.03934
-6.4528366e-14 -33.52618 -125.75719
-7.2579156e-14 -40.012028 -141.17456
-7.2901998e-14 -42.402138 -141.53514
-7.2094213e-14 -40.618999 -140.12521
-7.327041e-14 -40.824257 -142.46742
-6.2109477e-14 -33.963142 -120.83643
-7.7866587e-14 -38.38784 -151.98761
-8.0211831e-14 -39.644833 -156.55244
-8.6182343e-14 -43.057392 -168.14902
-7.6890175e-14 -41.138016 -149.70898
-7.965134e-14 -38.946865 -155.50742
-6.6583254e-14 -33.096645 -129.93814
-8.0749955e-14 -40.714455 -157.50961
-8.1377735e-14 -41.582573 -158.67012
-7.0610523e-14 -36.314201 -137.65459
-8.0379869e-14 -40.611103 -156.77832
-8.643257e-14 -43.315914 -168.62167
-7.7486005e-14 -38.759102 -151.18039
-8.5972042e-14 -48.50668 -167.0972
-6.8315057e-14 -34.00124 -133.31171
-7.1385545e-14 -36.11351 -139.23425
-7.3169694e-14 -35.604198 -142.87625
-7.346289e-14 -39.304848 -143.03763
-6.8711218e-14 -34.463818 -134.05388
-7.0715447e-14 -35.761383 -137.92917
-7.9438924e-14 -41.040703 -154.83896
-7.1802963e-14 -35.273785 -140.16957
-6.8851947e-14 -41.227661 -133.51498
-8.3178358e-14 -48.647728 -161.44511
-8.0626119e-14 -48.42926 -156.31854
-7.7963596e-14 -45.512802 -151.338
-7.5207798e-14 -45.299858 -145.79939
-8.225171e-14 -50.504822 -159.31905
-7.9731028e-14 -47.876488 -154.58569
-8.4332694e-14 -51.0574 -163.44788
-8.2464925e-14 -48.507973 -160.02284
-8.5211501e-14 -53.955025 -164.82722
-7.4725951e-14 -44.564774 -144.92638
-8.3860382e-14 -49.170437 -162.7516
-7.8407468e-14 -47.607071 -151.94847
-8.3106712e-14 -53.888439 -160.58388
-8.0246451e-14 -51.518639 -155.12912
-6.934137e-14 -41.467937 -134.47095
-7.0592017e-14 -44.334984 -136.60574
-8.4962345e-14 -54.941486 -164.18898
-7.3369675e-14 -43.506165 -142.33095
-7.5005716e-14 -47.514969 -145.08827
-8.0495777e-14 -46.871391 -156.26819
-6.9630838e-14 -46.112804 -134.40482
-6.6946747e-14 -45.034412 -129.12172
-6.8889e-14 -47.341305 -132.72609
-7.5130345e-14 -49.220104 -145.10098
-6.8347502e-14 -43.232517 -132.21739
-6.6072297e-14 -41.080082 -127.91638
-7.2745365e-14 -49.041294 -140.29503
-6.8553209e-14 -46.516609 -132.16391
-6.5868026e-14 -42.147915 -127.34969
-6.4095986e-14 -40.270016 -124.02869
-6.2907456e-14 -42.950089 -121.23723
-6.8344825e-14 -46.832016 -131.69661
-6.8660403e-14 -44.923405 -132.60916
-7.5978835e-14 -50.429424 -146.64671
-7.7303547e-14 -51.608517 -149.16154
-5.231058e-14 -157.99472 -53.820232
-4.0184995e-14 -122.44607 -40.707882
-5.0669236e-14 -153.49637 -51.856182
-4.6647477e-14 -141.02208 -47.919468
-4.7239444e-14 -147.72391 -45.564346
-5.0944614e-14 -156.69542 -50.711502
-5.1554142e-14 -160.6689 -50.051918
-4.848422e-14 -149.3549 -48.127701
-4.6212708e-14 -143.86079 -44.968517
-4.5015596e-14 -139.32973 -44.29007
-4.9935177e-14 -152.48946 -50.371746
-5.1132774e-14 -158.32809 -50.262974
-4.7962468e-14 -148.83603 -46.953888
-5.1136033e-14 -157.92804 -50.513538
-4.6187531e-14 -140.81792 -46.731983
-4.4767812e-14 -136.87675 -45.063423
-4.7219576e-14 -143.55582 -48.021564
-4.09588e-14 -124.47491 -41.68924
