# .PCD v0.7 - Point Cloud Data file format
VERSION 0.7
FIELDS x y z
SIZE 4 4 4
TYPE F F F
COUNT 1 1 1
WIDTH 1645
HEIGHT 1
VIEWPOINT -0 -0 -0 1 0 0 0
POINTS 1645
DATA ascii
68.36113 16 -1.3645115
76.168846 16 -1.4219923
77.631462 16 -1.4401264
64.718369 16 0.97169638
83.281898 16 -1.9567804
38.498268 16 -5.4349084
62.438885 16 -3.5302768
32.444206 16 -4.6139097
78.890961 16 -2.6049349
54.082355 16 -4.3961678
79.950783 16 1.6323924
56.686539 16 -3.4413061
47.355495 16 -2.2355304
50.558777 16 -0.74870443
74.380722 16 -2.1367383
76.593063 16 2.6318188
63.616341 16 -3.2127151
27.159649 16 -5.294323
48.443005 16 -2.459372
59.465698 16 -5.8356051
71.123268 16 -3.3023655
44.105808 16 -2.5768511
49.040714 16 -1.042944
79.406151 16 0.71867323
61.198387 16 0.37929535
58.482353 16 -1.4834309
89.102249 16 -1.4903784
61.873314 16 -5.8248448
78.943604 16 -2.9116445
51.026947 16 -4.7075338
80.169693 16 -3.5937619
76.287292 16 2.3105736
90.626404 16 3.0489635
83.638519 16 1.2867489
70.824554 16 -3.7654505
109.00567 -10.377988 -18.242893
109.99742 -10.714363 -16.884394
109.02577 -19.413839 -7.9249206
109.84923 -19.693836 4.2451334
109.81339 -19.499771 5.2016869
109.94285 -18.300552 8.205739
109.5351 -10.944696 17.285828
109.31928 1.511724 20.618977
109.64533 8.6219273 18.433508
109.76282 17.942732 9.353179
109.04963 20.853392 -1.9493475
109.85687 18.852949 -7.078218
109.14324 17.47963 -11.375291
109.90579 15.971129 -12.184168
109.76016 12.475666 -15.93067
77.72197 0.74213243 -20.981493
73.836823 0.65392625 -20.983692
94.935516 0.11002187 -20.997257
79.556396 0.19994932 -20.995014
90.468994 0.71645331 -20.982134
103.78396 0.21861917 -20.994549
22.397907 0.44884396 -20.988808
41.96981 0.61779988 -20.984594
29.614723 1.1179966 -20.968559
98.746681 1.747591 -20.921375
43.379669 1.3274056 -20.952866
106.62651 1.7054794 -20.924532
97.025467 1.0960008 -20.970207
42.008102 1.753437 -20.920938
45.336155 1.7374926 -20.922132
32.175354 1.6603236 -20.927916
99.754211 2.0316286 -20.900091
44.243084 1.9930239 -20.902985
22.421898 1.889401 -20.910749
76.802826 2.2487209 -20.875872
58.014465 2.4228225 -20.854055
56.302505 2.4128699 -20.855303
36.970497 2.8307009 -20.80294
88.662186 2.6493342 -20.825668
63.796734 2.5510471 -20.837986
85.807678 2.8181164 -20.804518
67.985764 2.5668988 -20.836
76.042496 3.263139 -20.741951
33.096802 3.2437534 -20.745369
105.2158 3.9772596 -20.616034
98.779167 3.6400497 -20.675491
52.817905 3.4350369 -20.711641
75.498978 3.8534257 -20.637869
67.964622 4.1476851 -20.585981
33.980473 3.8974509 -20.630106
27.706459 4.1522751 -20.585173
47.78286 3.7265296 -20.660244
37.682217 4.2379827 -20.566067
89.107422 4.3021836 -20.551413
92.821503 4.3466196 -20.541271
43.79113 4.8533068 -20.425623
94.63269 4.7310491 -20.453527
91.40683 4.6606979 -20.469585
31.358284 4.9058104 -20.413639
54.388416 5.3728104 -20.296911
101.43882 5.5178819 -20.256092
60.244987 5.4938278 -20.262861
89.367424 5.9686618 -20.129263
89.283401 6.0072751 -20.118399
91.334526 5.3322229 -20.308329
91.453682 6.0388031 -20.109528
25.802355 5.6345315 -20.223272
37.745415 6.6742525 -19.904282
33.578789 6.7824659 -19.867924
93.42308 6.4907107 -19.965948
57.549358 7.00559 -19.792957
54.444561 7.0112395 -19.791059
42.278954 6.8739247 -19.837194
95.503174 7.0769472 -19.768984
79.25827 6.96665 -19.806042
107.64442 7.6614585 -19.545536
91.062653 7.3781667 -19.656721
90.619965 7.3006363 -19.687149
54.169308 7.502254 -19.608019
67.800186 7.3519292 -19.667019
62.946239 7.7155776 -19.524298
55.331978 8.1446829 -19.355885
23.229481 7.7875175 -19.496063
47.610752 8.2023544 -19.330593
101.33605 8.6999407 -19.106073
83.998238 8.6525993 -19.127438
92.249619 8.3471355 -19.265266
41.540604 8.3803158 -19.250296
73.792419 8.9922523 -18.974178
72.500984 8.8282166 -19.048195
50.758095 8.7513552 -19.082876
65.79705 9.0316124 -18.956419
29.403946 9.2907734 -18.828468
88.100975 9.7463045 -18.594931
29.326515 9.2927237 -18.827469
101.88399 9.2370729 -18.855997
100.42062 9.7176857 -18.609604
83.978218 9.249157 -18.849802
29.669518 9.3657866 -18.79001
31.849049 9.6348295 -18.652081
22.329952 10.317147 -18.284567
94.155037 10.860768 -17.970707
28.184906 10.379424 -18.248611
24.417023 10.774995 -18.020229
76.184387 10.828726 -17.989208
107.64454 10.794267 -18.009102
100.67612 10.045336 -18.441498
87.065163 10.091185 -18.415028
90.540672 10.383186 -18.246439
46.02602 10.402473 -18.235306
42.939793 11.709686 -17.428541
95.557137 11.81723 -17.359083
70.33226 11.68377 -17.44528
74.723343 11.946335 -17.267176
92.380363 11.868718 -17.322979
62.174492 12.043171 -17.197556
105.0379 11.0748 -17.838596
108.15524 11.698606 -17.435698
34.419556 11.149208 -17.790537
100.31179 11.745404 -17.405474
57.107346 10.978194 -17.90099
72.49707 11.301294 -17.69231
31.349829 12.735552 -16.695396
76.996246 12.783364 -16.657267
62.36301 13.005956 -16.479755
27.064322 12.772054 -16.666286
97.571472 12.336294 -16.986813
66.06958 12.558049 -16.827381
102.77776 12.490384 -16.87603
71.014771 12.344713 -16.980761
80.601265 12.625455 -16.778921
28.938898 13.68288 -15.924252
75.258652 13.710842 -15.899575
30.16976 13.646235 -15.956592
94.81163 13.55779 -16.034645
62.465221 13.274184 -16.26585
107.01904 13.304162 -16.241945
96.798721 13.346588 -16.208111
61.800323 13.224286 -16.305643
75.314987 14.074482 -15.578662
74.06781 13.98494 -15.657683
83.302399 14.245502 -15.427736
102.08397 13.927033 -15.708786
96.879868 14.188436 -15.478097
44.346237 14.960109 -14.734269
41.921921 14.930539 -14.763109
39.722527 15.000247 -14.695119
46.28141 15.022788 -14.673133
58.455242 14.377936 -15.302104
77.372162 14.434601 -15.246834
107.89867 14.526964 -15.156745
22.378456 14.292089 -15.385836
77.108871 14.422785 -15.258359
80.237175 15.675814 -13.970405
43.551247 15.462076 -14.200759
90.579964 15.857173 -13.762202
84.431564 15.882072 -13.732529
26.097702 16.063074 -13.516819
56.647743 15.89244 -13.720174
55.018875 15.854521 -13.765364
53.577484 15.748999 -13.891121
61.484413 15.380813 -14.28834
59.007862 15.089347 -14.602466
40.584221 15.297453 -14.378181
88.338242 15.299098 -14.376408
47.050213 15.099837 -14.591159
95.121559 15.18891 -14.495161
72.989624 16.435118 -13.071297
22.043488 16.511709 -12.97018
57.238934 16.651184 -12.78605
31.046684 16.24394 -13.30127
98.192787 16.339375 -13.187537
37.594658 16.261894 -13.279875
53.92123 16.283939 -13.253603
89.561089 16.383121 -13.135401
108.62182 16.719328 -12.696085
67.800598 16.709757 -12.708722
76.760681 16.869837 -12.497385
107.17532 16.871357 -12.495378
86.935165 16.916368 -12.435955
48.607521 17.271631 -11.934568
84.353943 17.370512 -11.789535
63.377274 17.3144 -11.871839
95.807678 17.117168 -12.161121
41.562088 17.204359 -12.033237
66.365097 17.537123 -11.545163
42.276478 17.796438 -11.138363
86.197578 17.728252 -11.249945
22.176716 17.682404 -11.324971
45.811726 18.07711 -10.679062
91.105125 18.043337 -10.73433
65.443909 17.964798 -10.862853
35.213333 18.140329 -10.57561
97.714973 17.874704 -11.010285
43.279533 17.98708 -10.826391
108.19833 18.575598 -9.7855577
78.781815 18.2381 -10.405307
85.827759 18.349215 -10.201266
79.773331 18.371807 -10.159779
105.79507 18.555077 -9.8232384
53.483139 18.516693 -9.8937225
53.116261 18.522795 -9.8825207
49.688278 18.591148 -9.7570028
57.323296 19.023426 -8.8824644
41.386189 18.984875 -8.9625206
77.339752 19.089514 -8.7452326
75.867661 18.704376 -9.5449829
36.001793 18.713005 -9.5270634
52.623146 18.751951 -9.4461908
105.05569 18.959949 -9.0142756
98.462982 18.906773 -9.1247005
79.959663 18.943356 -9.0487337
43.082336 19.51289 -7.7562804
28.61311 19.471735 -7.8539119
75.127914 19.245953 -8.3895264
62.591694 19.192551 -8.5162144
105.6451 19.376455 -8.0799408
43.856819 19.198681 -8.5016708
28.040192 19.171055 -8.5672035
40.932407 19.758776 -7.0940223
23.921734 19.812872 -6.9453936
61.10535 19.79171 -7.0035343
82.830574 19.718719 -7.2040725
88.579979 19.708212 -7.232945
43.731888 19.688564 -7.2869282
62.418884 19.724171 -7.1890969
64.310272 19.745607 -7.1301951
40.724056 19.913898 -6.6647964
37.124249 20.046267 -6.2471766
45.247669 20.019644 -6.3311734
46.95422 20.100285 -6.0767493
59.902214 20.096889 -6.0874619
87.213196 20.064455 -6.1897941
99.647041 20.469362 -4.6903796
105.98643 20.579355 -4.1584358
100.46835 20.781754 -3.0131314
104.43283 20.974144 -0.96746755
106.66199 20.972193 0.97945535
107.33157 20.86458 2.3470199
101.28738 20.758839 3.1617057
105.26174 20.62352 3.9420435
103.10291 20.296021 5.3826175
102.31552 20.189665 5.7770605
101.29295 19.994766 6.4096603
83.336876 19.967798 6.4947414
90.89624 20.097242 6.0863452
87.887367 19.944096 6.5695281
83.378693 19.935911 6.5953493
84.906128 19.917381 6.6538134
52.246723 19.582804 7.5774965
25.905094 19.749878 7.118464
29.948986 19.680597 7.3088117
76.758408 19.601006 7.5274882
103.49535 19.6499 7.3931537
69.229866 19.761024 7.0878415
31.134293 19.898964 6.708859
48.127945 19.824053 6.9146719
36.135277 19.829054 6.9009328
49.930733 19.887386 6.740665
82.711479 19.269491 8.3336935
78.776215 19.401213 8.0212097
94.652702 19.243088 8.3963261
104.59238 19.493977 7.8011498
59.422108 19.424578 7.9657845
36.317982 19.263334 8.3482952
103.24426 19.159157 8.5954351
48.721024 19.27692 8.3160658
81.676552 19.160616 8.5919695
99.636917 18.873592 9.1935987
76.389481 19.022375 8.8846493
49.763718 19.075005 8.7753639
67.943947 18.884094 9.171792
76.747879 19.046146 8.8352861
78.257614 18.782516 9.3827209
86.36319 18.692102 9.570466
77.896225 18.701809 9.5503111
36.975346 18.731438 9.4887848
77.48822 18.79039 9.3663712
72.176147 18.593199 9.7532358
68.619217 18.396107 10.115158
45.814487 18.658642 9.6330633
102.69698 18.400955 10.106256
22.901878 18.621443 9.7013721
93.918427 18.330229 10.236129
24.184555 18.210516 10.45596
59.711143 18.363056 10.175847
89.413536 18.26823 10.349977
26.92658 18.533791 9.8623295
97.66581 17.746622 11.219886
68.784134 18.005182 10.796769
96.429688 17.707348 11.284152
108.27612 18.017948 10.775876
40.712662 18.029171 10.757512
58.288368 17.759367 11.199026
89.510696 17.724789 11.255611
32.206833 17.674887 11.337274
48.839836 17.74954 11.21511
52.781048 17.532686 11.551671
32.522774 17.587442 11.471358
76.22319 17.349237 11.820739
62.841892 17.636723 11.39908
105.08199 17.1502 12.112676
39.778702 17.441391 11.685577
31.529308 17.247719 11.969642
25.591629 17.096802 12.190995
24.571953 17.393114 11.756386
52.304905 16.790295 12.602398
72.402016 16.932062 12.415238
36.164581 16.919065 12.432396
46.060608 16.992435 12.335533
84.83699 16.554041 12.914295
95.707962 16.824896 12.556716
87.309685 16.713907 12.703242
98.88237 16.605581 12.846252
104.74492 16.423004 13.087289
102.90653 16.650703 12.786683
58.738323 16.252996 13.29048
94.921265 16.344872 13.180986
96.893768 15.957648 13.642461
31.671844 16.282925 13.254812
94.658676 15.984754 13.61016
81.92627 16.020269 13.567832
49.662949 15.900907 13.710083
64.59922 16.013824 13.575513
27.011574 15.81044 13.817897
57.727951 16.030733 13.555362
101.5174 15.308065 14.366743
98.263367 15.116026 14.573713
51.713482 15.617689 14.033048
30.918625 15.661202 13.986152
87.705902 15.266244 14.411816
32.069366 15.661847 13.985457
33.331127 15.22724 14.453854
74.775223 15.062544 14.631352
52.656288 15.216524 14.465402
58.83276 15.14141 14.546355
26.860455 14.779822 14.910115
29.70689 14.75561 14.933731
71.088608 14.89535 14.797433
40.540482 14.72327 14.965275
94.783806 14.507139 15.176083
41.364578 14.355036 15.32444
60.268555 14.331322 15.34757
47.462715 14.302937 15.375256
76.837097 14.786495 14.903606
33.094292 13.8255 15.798389
31.442808 13.959062 15.680521
45.372372 13.668898 15.936591
55.697212 13.903207 15.729813
107.55051 13.595308 16.001534
89.021286 13.901257 15.731534
105.24242 13.645224 15.957483
91.253181 13.714819 15.896066
53.385216 14.224768 15.446033
74.701538 12.891496 16.571033
60.103878 12.757287 16.678062
41.605896 13.034863 16.456703
96.910545 13.017979 16.470169
81.160721 13.319286 16.229881
74.417557 13.232395 16.299175
81.644096 13.304947 16.241318
107.14233 13.224254 16.30567
73.80661 11.965422 17.253452
70.663811 12.058376 17.186623
43.29818 12.181531 17.098082
26.57081 12.323979 16.995667
71.425659 12.006877 17.223648
90.790771 12.112853 17.147457
104.49439 11.978356 17.244154
53.072838 12.503718 16.866444
89.137085 12.241968 17.05463
99.581642 12.516333 16.857374
39.493542 11.49301 17.568487
26.331905 11.397136 17.630409
41.088921 11.490362 17.570196
70.307877 11.256516 17.72123
63.789948 11.472937 17.58145
100.38558 11.42999 17.609188
100.28663 11.405288 17.625145
51.241158 11.503493 17.561716
89.262337 11.775112 17.386284
76.321846 11.382034 17.640162
32.08168 10.049625 18.439022
48.443127 10.371599 18.25313
24.905655 10.061864 18.431955
39.334572 10.355149 18.262627
67.541611 10.429122 18.219919
25.982658 10.847601 17.97831
75.004425 10.530185 18.16157
80.163605 10.413548 18.22891
64.57959 10.596448 18.123314
22.752363 9.7228794 18.606941
25.159828 9.689333 18.62414
42.777889 9.1845016 18.88295
73.324646 9.1795626 18.885483
66.398712 9.20467 18.87261
32.134609 9.4119406 18.76635
76.673218 9.5414743 18.699942
81.532173 9.9462519 18.492424
58.997398 9.6628828 18.637699
103.30096 9.7273722 18.604637
64.276184 9.5314493 18.705082
70.662735 8.2121229 19.326187
25.686409 8.3472891 19.265198
98.25843 8.1011353 19.372976
50.849598 8.1285896 19.362202
36.150162 7.5158172 19.602697
67.619881 8.0365267 19.398335
96.221245 8.8858929 19.022171
29.584595 9.0670156 18.940445
108.53122 9.0514479 18.947468
106.84455 9.0077362 18.967192
98.50238 9.1002045 18.925468
82.665276 7.2320175 19.714081
90.733032 7.3021278 19.686565
95.82988 7.2074256 19.723732
96.5774 7.2018514 19.72592
63.56604 7.6024508 19.568697
101.43218 7.4809017 19.616402
36.522034 6.2606993 20.043226
79.311615 6.3414807 20.016087
44.776932 6.3313694 20.019484
57.269577 6.4649787 19.974592
40.261189 6.3885126 20.000284
35.111309 6.3983531 19.996977
95.51889 6.3575468 20.010689
79.585709 7.1099467 19.757896
86.211952 6.4970613 19.963814
94.614326 6.9764285 19.802755
67.808716 7.1793189 19.734589
43.077068 5.415935 20.284777
71.744904 5.4210215 20.283346
94.468201 5.2059617 20.343853
71.764259 5.5211458 20.255175
68.238068 5.5671582 20.242228
107.29635 5.5656805 20.242645
38.058128 6.0394902 20.109335
64.50106 6.1444135 20.079815
75.618271 5.54286 20.249065
42.258827 5.9085855 20.146168
34.240059 4.7552547 20.448002
85.571579 4.2397795 20.565657
94.505394 4.2088723 20.572712
32.768906 4.1519384 20.585232
41.547707 3.9797056 20.615601
26.398529 3.8478303 20.638855
25.794943 4.1133981 20.592028
44.365429 4.1488042 20.585785
35.881523 5.0698609 20.376196
104.28447 4.4672828 20.513731
47.726475 4.7773809 20.442951
58.553352 4.992547 20.393841
106.20791 5.1065183 20.367828
39.182152 4.8211889 20.432953
94.946991 3.8697577 20.634989
69.362404 3.6266787 20.677849
63.772446 3.6178815 20.679401
22.372307 3.2901769 20.737185
92.153122 3.4455261 20.709791
43.144028 2.563838 20.836384
32.771774 2.6196685 20.829386
80.575356 2.324285 20.866404
30.764477 2.6974642 20.819637
76.137894 3.0363245 20.777172
87.051941 2.5952716 20.832445
31.070732 3.069258 20.773045
61.217995 2.994916 20.782362
68.371506 2.5962403 20.832323
82.816681 2.9774861 20.784548
59.751755 1.0537694 20.973372
37.744209 1.6110547 20.931608
76.868729 1.3285639 20.952778
59.67606 0.73228103 20.981739
25.43647 0.54690707 20.986361
36.267998 0.36929315 20.990791
47.722557 1.9021461 20.909794
47.843372 1.9697233 20.90473
65.450394 1.8809448 20.911383
76.801376 1.5162482 20.938713
82.990112 1.3092375 20.954227
50.087849 1.6213077 20.93084
93.830765 0.56094724 20.986012
77.453339 0.47352874 20.988192
49.226311 0.22249413 20.994452
97.227173 0.40275294 20.989956
41.059227 0.24323907 20.993935
46.692352 -0.61043459 20.984777
75.67231 -0.87040895 20.978294
103.91058 -1.0141721 20.974709
46.510155 -0.57479298 20.985666
29.070549 -0.13051808 20.996746
101.77537 -0.69398606 20.982693
33.319855 -0.024773836 20.999382
69.762238 -0.57828552 20.985579
95.109215 -0.079987422 20.998005
79.057358 -0.4393118 20.989046
28.143166 -1.9896884 20.903234
33.154465 -1.3749087 20.949305
45.190357 -1.610816 20.931625
25.849197 -1.7061421 20.924482
23.291199 -2.7886355 20.808212
65.133789 -2.4248395 20.853802
23.71727 -2.6383872 20.827042
47.151123 -1.1087759 20.969248
89.645271 -1.8869636 20.910933
95.452347 -1.233385 20.959911
44.332481 -1.0747242 20.9718
65.108017 -1.3281126 20.952812
105.15743 -2.1578507 20.88726
54.647358 -2.9926071 20.782652
81.595215 -2.6232095 20.828943
27.322723 -2.9746611 20.784901
99.736076 -2.2009311 20.881861
108.53389 -2.6792903 20.821915
24.734371 -3.6789837 20.668627
35.893005 -3.8482466 20.638781
28.873848 -4.0668755 20.600231
30.766689 -3.75753 20.654778
83.044128 -3.4949231 20.70108
68.289154 -3.3499563 20.726645
103.0526 -3.4025292 20.717373
98.250084 -3.1900744 20.754835
84.729004 -3.8412642 20.640013
72.225632 -5.0117245 20.389465
61.478561 -4.7586603 20.447226
76.850571 -4.9545341 20.402519
76.57827 -4.3185296 20.547684
76.512222 -4.3823547 20.533115
53.835827 -4.2179656 20.570637
83.839828 -4.1638765 20.582981
24.85099 -5.8574138 20.160564
71.715096 -6.1357126 20.082262
51.086796 -5.8677773 20.157648
31.284782 -6.1806993 20.069605
105.51706 -5.6144352 20.228928
82.217247 -5.5185947 20.255892
60.834637 -5.6920285 20.207096
72.886795 -5.7105656 20.20188
103.7068 -5.3695602 20.297823
33.447891 -5.4273167 20.281574
63.725311 -7.0107808 19.791214
69.517174 -6.92941 19.818552
86.230804 -7.1814857 19.73386
43.287712 -7.2541938 19.705378
41.824741 -7.3240395 19.677965
33.270348 -7.2611804 19.702635
41.501701 -7.6653113 19.544025
75.218903 -6.4601912 19.9762
41.643669 -6.3702946 20.006405
96.570595 -6.3901191 19.999744
86.357407 -6.1959929 20.064968
99.695801 -6.3204484 20.023151
49.74667 -6.4351578 19.984612
76.359634 -8.3249025 19.275299
30.226435 -8.2107897 19.326788
49.116882 -8.5540142 19.171919
81.293381 -7.6129355 19.564581
95.284256 -7.6309872 19.557497
53.918118 -7.8265538 19.480742
75.892769 -8.1136341 19.368071
89.297119 -8.1226416 19.364536
34.613922 -7.9198422 19.44413
98.691933 -8.5139647 19.189991
101.8082 -8.955616 18.990709
80.065742 -8.4467106 19.220337
105.1277 -8.4737606 19.208132
82.582901 -8.4195442 19.232594
83.93972 -9.0888853 18.930576
59.091854 -9.9474287 18.491821
78.278831 -9.1739616 18.888353
32.796165 -9.3715992 18.787031
101.19788 -9.6852884 18.626213
103.8 -9.8441763 18.544756
34.063354 -9.303421 18.821983
62.210369 -10.787091 18.013245
45.959866 -10.93957 17.925211
66.792503 -10.709458 18.058067
27.350798 -10.326295 18.279285
93.487244 -10.543682 18.153778
59.448181 -10.052591 18.437307
105.77663 -10.539236 18.156343
81.243317 -10.136548 18.388836
61.880672 -10.078156 18.42255
32.774273 -11.636507 17.475805
49.243378 -11.348506 17.661818
41.967712 -11.378475 17.642462
44.810585 -11.178773 17.771442
63.217804 -11.410439 17.621817
91.930901 -10.95321 17.917126
99.477539 -11.485457 17.573364
31.696716 -11.027083 17.869413
103.30576 -11.198381 17.758778
33.7672 -12.298877 17.013714
32.881451 -12.540348 16.840109
28.051193 -12.611661 16.788837
49.987953 -12.430196 16.919302
33.822285 -12.408072 16.935207
28.786819 -13.210355 16.316753
28.182848 -12.908848 16.557198
25.434803 -13.096791 16.407316
35.409164 -12.740731 16.691265
106.16193 -12.425056 16.922998
22.987518 -12.005837 17.224396
81.404243 -12.249197 17.049433
66.150131 -12.116993 17.14448
43.974762 -11.921683 17.284899
103.10812 -13.439564 16.133965
108.46425 -13.347617 16.207291
93.398468 -13.15404 16.361662
81.46524 -13.186891 16.335464
91.203079 -12.863274 16.59354
29.377056 -13.83873 15.786715
71.671371 -14.104047 15.55257
96.97226 -14.156632 15.506163
49.675735 -13.670791 15.934921
51.089001 -13.529976 16.059191
65.541946 -13.802222 15.818932
54.298218 -13.764851 15.851912
47.380398 -14.882118 14.810338
40.897602 -14.633159 15.053166
90.434296 -14.714522 14.973806
78.565376 -14.693713 14.994102
103.91855 -14.643465 15.043114
104.57198 -14.807172 14.88344
87.859901 -14.532936 15.150922
99.619728 -14.400508 15.280087
50.370667 -15.604028 14.047771
75.728729 -15.698506 13.945948
56.548237 -15.663013 13.9842
31.361673 -15.841599 13.780765
89.591705 -15.861691 13.75682
54.235519 -15.862143 13.75628
48.279186 -15.841434 13.78096
63.972 -15.153542 14.533279
86.155212 -15.078036 14.614655
85.750595 -15.413963 14.252612
98.231644 -15.562633 14.092385
102.27249 -15.345972 14.32589
91.39299 -15.224641 14.456654
71.012581 -16.216715 13.333716
79.639755 -16.184544 13.372057
88.410278 -15.919783 13.687588
88.15715 -16.240372 13.305525
97.459801 -16.355169 13.168715
44.221687 -16.713428 12.703876
77.862801 -16.92914 12.419095
100.46007 -17.014025 12.307033
23.009239 -16.804565 12.583556
31.820961 -16.874435 12.491316
102.58483 -16.453373 13.047195
81.527283 -16.579992 12.880035
74.645897 -16.49802 12.988253
97.847267 -16.516485 12.963875
53.385815 -16.692623 12.731341
70.872681 -16.638714 12.802511
42.948212 -17.396467 11.751468
88.047211 -17.589636 11.468142
50.494221 -17.518917 11.571866
31.339954 -17.485779 11.620472
57.092083 -17.411936 11.72878
35.682594 -17.778238 11.168146
80.103653 -17.746618 11.219889
27.398153 -17.76453 11.190579
28.414688 -17.959774 10.871076
44.778061 -17.237587 11.9845
66.963196 -17.212322 12.021556
28.202393 -17.056585 12.249982
104.42181 -17.123928 12.151208
96.789917 -17.468782 11.6454
106.03815 -17.573215 11.492227
46.469051 -18.153849 10.553485
40.744194 -18.028929 10.757908
93.822372 -17.856461 11.040141
86.311401 -17.956804 10.875936
50.87978 -18.155024 10.551564
104.09722 -17.938816 10.905373
42.842468 -18.409388 10.09077
72.233383 -18.545792 9.8402901
68.965424 -18.379576 10.145514
63.893196 -18.363098 10.175774
46.690681 -18.228668 10.422629
103.23453 -18.419382 10.072417
100.93948 -19.131252 8.6585617
33.467003 -18.844925 9.253129
28.187859 -19.137962 8.6446276
27.564972 -19.078867 8.7673416
60.854988 -19.260939 8.3539762
31.89016 -19.303423 8.2531958
59.820801 -18.806442 9.3330383
108.1121 -18.926807 9.0830975
38.136658 -18.696611 9.5611038
23.069397 -18.747046 9.4563751
66.975098 -18.803797 9.3385305
51.808769 -19.71859 7.2044311
48.515541 -19.666656 7.3471131
78.309074 -19.591921 7.5524492
45.097916 -19.689127 7.2853794
28.805622 -19.665579 7.3500767
103.39675 -19.344946 8.1546898
69.598518 -19.495394 7.7977877
81.063477 -19.406235 8.0092955
102.76906 -19.166357 8.5783529
56.912479 -19.356382 8.1275587
26.992012 -19.988804 6.4213133
30.242603 -20.046125 6.2354856
35.016361 -20.067789 6.1652513
75.73172 -19.972126 6.4753852
75.944405 -19.73086 7.1707172
66.201012 -19.736391 7.1555204
108.66663 -19.723869 7.1899261
36.626518 -19.790817 7.0059876
37.369286 -19.803696 6.9706059
30.383965 -20.168127 5.839963
73.19252 -20.11108 6.0249066
41.917633 -20.205906 5.7174859
106.55708 -19.967039 6.4918776
84.209396 -20.143188 5.9208102
105.45462 -19.959238 6.5171671
89.808487 -20.321529 5.2697091
49.19059 -20.282761 5.4219708
57.655277 -20.335173 5.2161241
84.331573 -20.299786 5.3551006
72.255585 -20.249723 5.551703
94.461754 -20.308802 5.319694
75.652267 -20.397861 4.9699349
43.527142 -20.434914 4.8244233
33.770294 -20.358791 5.1233702
28.607296 -20.390472 4.9989514
82.47377 -20.593002 4.0817337
77.028801 -20.613012 3.9827466
64.284363 -20.527035 4.4080486
99.954956 -20.494423 4.5693684
23.542831 -20.478176 4.6497407
56.73243 -20.638674 3.8558097
39.375343 -20.678337 3.6596012
80.823273 -20.639568 3.8513801
69.893898 -20.665655 3.7223341
23.714165 -20.654699 3.7765281
33.249603 -20.553207 4.2785859
75.092651 -20.718472 3.3977671
42.184036 -20.731724 3.3098323
86.741501 -20.686296 3.6112368
53.820374 -20.728851 3.328898
93.476173 -20.722933 3.3681562
22.198196 -20.69589 3.5475848
101.85583 -20.831724 2.6463683
60.760845 -20.819918 2.7247045
79.155243 -20.848656 2.4949665
93.15374 -20.866646 2.3151827
93.815727 -20.864094 2.3406742
74.890427 -20.845272 2.5287867
76.35331 -20.846523 2.5162673
98.324738 -20.891798 2.063833
22.453533 -20.904001 1.9418765
39.010235 -20.959116 1.2119455
26.918489 -20.950243 1.3897381
23.784996 -20.962563 1.1429048
93.521698 -20.970303 0.9878155
85.077118 -20.9757 0.8796463
66.258316 -20.97842 0.82517195
84.899643 -20.96027 1.1888502
52.507385 -20.982779 0.73783863
108.80058 -20.993473 -0.12610714
89.561172 -20.993473 -0.153225
69.072281 -20.993473 0.1478512
90.568283 -20.993473 0.29916587
45.917171 -20.993473 0.16876873
23.367516 -20.993473 -0.36204994
77.610924 -20.993473 -0.30716246
42.842659 -20.993473 -0.47404802
91.947388 -20.993473 -0.37487847
105.30514 -20.971458 -0.96466547
91.920181 -20.990643 -0.58026111
74.546234 -20.9897 -0.59912825
98.184441 -20.955828 -1.2778212
74.830849 -20.971205 -0.96974576
52.838223 -20.972174 -0.9503085
71.525803 -20.951084 -1.3728971
30.730957 -20.887878 -2.1030011
40.286034 -20.93087 -1.6733607
67.449623 -20.907391 -1.9080112
73.949158 -20.939648 -1.5856525
40.319077 -20.839247 -2.5889988
89.3564 -20.853193 -2.4496148
25.560516 -20.852688 -2.4546754
93.407013 -20.867193 -2.3097177
88.107491 -20.879625 -2.1854784
104.11506 -20.868958 -2.2920756
67.540756 -20.74526 -3.2200205
87.482788 -20.821379 -2.7150171
45.001022 -20.780626 -2.985383
51.199833 -20.804953 -2.8239851
108.93721 -20.767916 -3.06972
49.303131 -20.824541 -2.6940351
47.159912 -20.743208 -3.2336481
82.755493 -20.699751 -3.5219665
43.684204 -20.760862 -3.1165195
68.172028 -20.722485 -3.3711362
34.676323 -20.585543 -4.1186333
23.014431 -20.599525 -4.0494642
24.889753 -20.648762 -3.8059072
102.14298 -20.573824 -4.1766009
70.98732 -20.578144 -4.1552248
74.513474 -20.547205 -4.3082705
89.886421 -20.639296 -3.8527343
87.769142 -20.547808 -4.3052907
27.829002 -20.405472 -4.9400449
54.075676 -20.272989 -5.460341
78.534027 -20.222214 -5.6597495
58.308701 -20.100111 -6.0604625
53.131409 -20.454393 -4.7479191
54.311161 -20.428522 -4.8495293
31.133308 -20.448837 -4.7697439
57.482559 -20.360931 -5.1149654
67.093605 -20.406023 -4.9378834
65.309311 -20.3874 -5.0110183
108.73246 -20.006124 -6.3651633
43.516533 -19.941965 -6.5731611
104.06605 -20.039724 -6.2562342
106.09087 -20.042078 -6.2486048
105.92465 -19.909615 -6.6780386
48.669144 -19.968245 -6.4879699
28.422283 -19.807491 -6.9601755
79.127213 -19.592602 -7.5505795
78.829758 -19.640629 -7.4186277
55.168667 -19.587679 -7.5641026
32.174011 -19.574015 -7.6016459
99.132217 -19.674351 -7.3259764
53.327991 -19.83536 -6.8836074
91.608025 -19.612514 -7.4958706
107.99247 -19.80542 -6.965867
108.88112 -19.863852 -6.8053293
65.998871 -19.860207 -6.8153424
35.594772 -19.288843 -8.2877827
60.725483 -19.269323 -8.3340883
40.805519 -19.236685 -8.4115171
29.417183 -19.487759 -7.8159022
55.140102 -19.476164 -7.8434086
90.264343 -19.224012 -8.4415731
66.545197 -19.502787 -7.7802486
70.713486 -19.367886 -8.1002722
71.489967 -18.818096 -9.308836
39.926186 -18.776379 -9.395463
31.207836 -18.835659 -9.2723675
67.873657 -18.798944 -9.348608
105.97508 -18.964231 -9.0053844
97.073624 -19.130533 -8.6600542
100.99165 -18.8536 -9.2351131
46.734482 -18.987856 -8.9563284
75.559662 -18.983072 -8.9662619
85.124275 -18.276775 -10.334286
68.167419 -18.191422 -10.491021
24.628922 -18.562883 -9.8089056
80.246124 -18.380604 -10.143626
75.941223 -18.356577 -10.187745
38.007881 -18.641146 -9.6651917
89.794548 -18.294434 -10.301861
78.963387 -18.473989 -9.9721413
99.730507 -17.670208 -11.344932
86.234253 -17.807409 -11.120409
41.454147 -18.134361 -10.585374
106.93649 -17.855387 -11.041896
57.165421 -18.08605 -10.664435
106.27161 -17.655317 -11.369296
82.371361 -17.162458 -12.094694
52.424541 -17.125637 -12.148701
37.824535 -17.323723 -11.858164
99.901535 -17.009224 -12.31337
33.68734 -16.938501 -12.406736
31.189463 -16.931652 -12.415779
27.503483 -16.877495 -12.487277
83.204224 -17.261671 -11.949178
99.800636 -17.415937 -11.72291
107.44116 -17.598299 -11.455437
78.927666 -17.496958 -11.604075
36.01783 -16.100098 -13.472696
79.831665 -16.252626 -13.290919
49.772415 -16.082726 -13.493399
94.492638 -16.586382 -12.8716
77.106567 -16.539394 -12.933631
96.278198 -16.456173 -13.043499
37.324097 -16.460609 -13.037642
98.504395 -15.867725 -13.749628
101.74937 -15.937899 -13.665998
48.850117 -16.017494 -13.571139
90.707672 -16.153065 -13.409574
90.034378 -15.792174 -13.839665
85.05928 -15.864704 -13.753227
66.685043 -15.056698 -14.637653
69.968071 -15.224818 -14.456462
62.653465 -15.204669 -14.478178
30.957855 -15.331211 -14.341798
34.185593 -15.687558 -13.957747
80.833267 -15.610401 -14.040902
79.801895 -15.730807 -13.911136
83.887398 -15.371771 -14.298085
92.125626 -15.70323 -13.940857
107.11546 -15.514918 -14.143809
28.401588 -14.381382 -15.298742
73.782394 -14.452068 -15.229797
75.065582 -14.308578 -15.369754
61.281788 -14.304314 -15.373914
106.17005 -15.027547 -14.66849
86.67321 -14.738855 -14.950073
55.003841 -14.838017 -14.853354
75.980888 -14.634569 -15.05179
81.992172 -14.936864 -14.756942
75.223572 -13.610873 -15.987799
22.168619 -13.997065 -15.646983
81.491951 -13.548392 -16.042938
32.538689 -13.240326 -16.292852
29.151878 -13.219652 -16.309338
60.813507 -13.425249 -16.14538
58.699863 -14.261911 -15.413254
76.431572 -13.738728 -15.874967
82.597168 -13.879732 -15.750529
100.18094 -13.619448 -15.980232
84.2089 -14.192956 -15.474108
97.018181 -14.015402 -15.6308
100.03389 -12.763275 -16.673286
68.32991 -12.974898 -16.504522
81.54467 -13.071862 -16.427197
104.64974 -13.104268 -16.401354
44.161957 -12.865316 -16.591911
68.635078 -12.588851 -16.805235
59.652176 -12.284035 -17.024387
105.48097 -12.54169 -16.839144
37.033714 -12.612127 -16.788502
62.433369 -12.518914 -16.855518
83.626381 -12.416091 -16.929443
54.869202 -12.144344 -17.124817
26.683338 -12.260923 -17.041
47.04895 -12.243658 -17.053413
34.77903 -11.948076 -17.265924
91.247292 -11.127433 -17.8046
31.848587 -11.641065 -17.472862
95.912605 -11.542879 -17.536278
101.67179 -11.681936 -17.446465
43.884735 -11.648046 -17.468353
45.311596 -11.79318 -17.374617
40.670151 -11.041416 -17.860157
28.602512 -11.27736 -17.707767
35.686249 -11.379388 -17.64187
33.71999 -11.199571 -17.758009
31.360138 -11.317383 -17.681917
102.51099 -10.576341 -18.134922
98.883331 -10.693686 -18.067173
101.34639 -10.610289 -18.115322
50.252083 -10.717779 -18.053263
83.089928 -10.765551 -18.025681
76.116959 -10.423677 -18.223063
54.41906 -10.12689 -18.394413
39.905624 -10.526985 -18.163418
36.32143 -10.579846 -18.132898
96.212158 -9.3082457 -18.819511
93.604782 -9.8074331 -18.563593
81.290939 -9.9153576 -18.508263
93.658836 -9.4730501 -18.735022
40.996376 -9.7295532 -18.603519
24.224255 -9.2946787 -18.826466
48.309357 -9.2221041 -18.863672
47.779388 -9.6133986 -18.663067
64.190903 -9.1998129 -18.875101
53.983368 -9.3349504 -18.80582
98.053566 -9.0868082 -18.931513
70.095215 -8.6115465 -19.14596
67.754684 -8.9375467 -18.998863
87.216797 -8.9847221 -18.977575
91.774742 -9.0519571 -18.947239
108.22533 -8.5710144 -19.164248
41.539261 -8.7256346 -19.094481
46.153118 -8.667469 -19.120728
28.598953 -8.7395515 -19.088202
71.881966 -7.8088117 -19.487705
71.474991 -7.690835 -19.534008
75.071815 -7.6431665 -19.552717
92.846764 -7.7383509 -19.515358
104.96752 -8.0887785 -19.377827
31.815033 -8.0837278 -19.379808
57.792061 -7.6274738 -19.558876
27.3218 -7.5568457 -19.586596
82.226929 -7.3187785 -19.680029
47.726002 -7.7259021 -19.520245
78.397469 -7.0365233 -19.782564
54.984818 -6.7423143 -19.881413
83.05999 -6.6261473 -19.920443
100.21055 -6.4487 -19.980062
69.071548 -6.676692 -19.903461
25.410166 -6.7606769 -19.875244
25.29557 -6.2989249 -20.030384
76.850914 -6.2598181 -20.043524
99.094513 -6.2225604 -20.056042
36.366234 -6.8179951 -19.855986
69.996887 -5.8619866 -20.159277
70.937263 -5.6572027 -20.216894
60.096615 -5.8617949 -20.159332
66.767746 -5.940021 -20.137321
28.763241 -5.4650779 -20.27095
73.09726 -5.266818 -20.326731
29.181881 -5.4990149 -20.261402
38.616425 -5.1886134 -20.348734
52.260067 -5.6141167 -20.229017
99.202415 -5.1357598 -20.361155
66.94606 -4.5993643 -20.483583
60.716187 -4.6781621 -20.465599
71.706123 -5.0683603 -20.376539
108.69487 -4.2805204 -20.556358
79.679474 -4.4112124 -20.526527
49.254482 -4.3778615 -20.53414
51.275352 -4.5167046 -20.502451
45.647018 -4.7437539 -20.450628
98.914795 -3.2899897 -20.737217
91.861526 -3.9052627 -20.628727
77.437439 -3.6023343 -20.682142
70.605949 -3.7515819 -20.655825
48.286922 -4.0658174 -20.600418
40.546844 -4.0357885 -20.605711
97.555222 -3.182615 -20.756151
39.658234 -3.464133 -20.706511
26.393433 -3.4121416 -20.715679
32.509373 -3.3115063 -20.733423
38.1199 -3.3434956 -20.727783
97.284203 -2.278451 -20.872147
83.298294 -2.372524 -20.860357
48.453815 -2.8701434 -20.797998
39.406479 -2.7939265 -20.80755
54.529373 -2.5222859 -20.841591
66.065247 -2.3797109 -20.859457
55.241829 -2.3719497 -20.86043
45.643314 -2.4165268 -20.854843
26.662529 -1.8524818 -20.913515
37.437675 -1.9074116 -20.909401
108.19424 -1.7495104 -20.921232
28.682541 -2.0586112 -20.898067
99.041794 -1.0736933 -20.971878
40.152977 -1.657678 -20.928114
89.758896 -1.2222683 -20.960743
43.906395 -1.2344458 -20.959831
65.300201 -0.61858487 -20.984573
27.782875 -0.8041594 -20.979946
46.561131 -0.87451011 -20.978191
96.737083 -0.99403042 -20.97521
46.866302 -1.0229847 -20.974489
86.111496 -0.14328632 -20.996428
85.539726 -0.16413046 -20.995907
85.761414 -0.16282144 -20.995939
110 -14.143362 -13.974076
110 -8.1576071 -7.5466976
110 -6.9013252 -7.5479407
110 -10.804098 -13.25635
110 -7.2131696 -10.474319
110 -16.046024 -10.297517
110 -8.3255291 -15.003601
110 -17.073547 -7.8056426
110 -4.133142 -9.8723383
110 -9.3662691 -4.1862512
110 -10.270729 -3.5989356
110 -16.644989 -4.8560352
110 -14.788442 -4.0350575
110 -4.5162344 -18.143744
110 -11.106724 -2.1249857
110 -9.7848597 -2.2013896
110 -1.9912454 -16.261692
110 -3.7446978 -19.5177
110 -1.579879 -8.0706043
110 -11.860655 -1.7696179
110 -8.4628096 -1.1938794
110 -1.4364402 -15.155275
110 -0.90656608 -8.6537752
110 -17.301037 -1.6640034
110 -0.44543669 -14.803383
110 -12.512324 -0.53722
110 -15.928656 0.092396021
110 0.29864126 -19.982859
110 -16.655439 1.2087588
110 1.3687358 -16.385408
110 1.8037752 -16.439264
110 1.02529 -8.7058392
110 2.8238654 -14.302879
110 -10.586849 2.062253
110 3.6688769 -17.746628
110 -8.7120228 2.5742126
110 -15.921598 5.0414715
110 -16.571302 6.2374697
110 3.8556366 -11.56173
110 6.3115287 -17.006264
110 -16.402536 8.3244057
110 -15.862805 6.2419949
110 -11.27662 7.2076163
110 8.5687246 -12.580692
110 -11.191184 8.134016
110 9.6302414 -12.216978
110 10.403309 -11.734579
110 -11.622927 10.403345
110 12.078005 -12.369038
110 -10.284603 11.769189
110 10.16097 -7.8736472
110 7.8310432 -6.6483855
110 -11.362977 15.49943
110 11.566654 -7.5902138
110 9.1477852 -6.5610776
110 -7.4188108 13.47287
110 12.313216 -6.3478045
110 15.708967 -7.097003
110 -7.2958302 17.221081
110 17.943216 -7.6304512
110 11.854214 -4.0949554
110 -4.7757397 13.999613
110 -2.4609287 8.8586254
110 10.909296 -3.0099187
110 16.117695 -4.893116
110 -2.9989412 11.216891
110 16.990469 -4.0533299
110 -4.4000325 17.962004
110 14.751022 -2.5987017
110 -3.5076725 19.609171
110 10.165009 -0.96722323
110 -1.6002243 12.958036
110 -0.63093191 17.422337
110 18.05352 0.36362273
110 0.01525104 9.3622093
110 1.6358223 17.521984
110 2.4539053 19.418186
110 3.2132971 14.322355
110 11.695554 2.7379146
110 4.6703062 17.766121
110 19.061169 5.7273092
110 15.440516 5.3146439
110 4.5691557 12.219007
110 8.5309134 18.014414
110 17.334845 8.8368473
110 8.5107861 16.225286
110 9.5134392 5.6120062
110 7.9047484 4.2459006
110 11.315598 5.9055204
110 5.7872982 10.541843
110 9.9717169 14.544507
110 15.945394 11.986317
110 6.8994966 9.0922012
110 6.7701225 6.3502936
66.485687 0.21550165 -2.7222149
65.377007 0.80332309 -0.3756285
65.904671 1.5361713 -0.8668983
66.575233 1.8833406 -2.1791406
67.049973 2.0698991 -3.0330222
67.274292 2.2458713 -3.3626628
65.584579 1.2323112 0.0067460462
68.401253 3.6736503 -4.6374364
67.377457 3.571779 -2.2372832
68.441795 5.7258887 -1.7425976
68.976181 6.7413692 -1.3525943
68.045418 5.3251071 0.050676614
67.483688 3.4269278 2.7413249
65.890236 -0.77893144 1.5568848
66.124977 -1.0573121 1.8495719
67.01049 0.54342914 3.5649166
66.39035 -1.1185087 2.3185232
66.749718 -3.1551044 0.29675853
67.792336 -4.2652574 -2.4153767
67.890305 -3.6892571 -3.4732819
68.745567 -3.388813 -5.5366545
108.99926 6.8591919 -1.3822534
108.96007 6.5535731 2.3377519
109.77937 5.7451677 5.2419829
109.85471 5.9641247 5.1081929
109.04763 -0.14739755 7.0439501
109.26624 -3.8393912 6.1675963
84.41494 0.60979152 -6.8890433
104.95431 0.63399029 -6.8872299
76.66188 0.99039197 -6.8453259
94.898727 0.78090894 -6.8715777
102.31406 1.4502027 -6.7621918
71.510117 1.7850204 -6.6816254
102.48497 1.7327659 -6.6963272
106.53114 2.2566857 -6.5370259
81.43367 2.6648309 -6.3830113
97.560326 2.4149799 -6.481071
84.449211 2.7779796 -6.3332591
80.139839 3.222141 -6.1192803
74.971336 3.011795 -6.227118
103.27414 3.358341 -6.0462189
98.287857 3.6776383 -5.8570347
92.029587 3.8507667 -5.7452164
85.804916 3.9533758 -5.6748071
104.28757 4.3999767 -5.3361998
70.040833 4.2279782 -5.4733639
73.80204 4.6230183 -5.1433191
88.062248 4.5380163 -5.2183337
93.149025 4.8989501 -4.8818049
106.63725 4.9239111 -4.8574591
85.694046 5.1792517 -4.585144
81.975388 5.3787565 -4.3482223
77.429474 5.1966963 -4.5651937
69.065765 5.6563339 -3.9797394
83.156151 5.8892221 -3.6248615
93.587799 6.4142962 -2.5866077
88.626755 6.5485778 -2.2270608
90.397278 6.4766641 -2.4246423
80.220428 6.6200962 -1.9995103
100.0311 6.5666556 -2.1727602
80.384483 6.7671461 -1.425107
85.835419 6.7685971 -1.4179285
81.851852 6.8418703 -1.005738
86.883087 6.8157029 -1.1793463
97.480949 6.8965359 -0.53314936
80.934929 6.8716202 -0.78214568
73.334099 6.9072595 -0.33456481
108.43349 6.9033256 -0.41338715
85.705597 6.91535 0.14184953
106.31837 6.91535 -0.08177907
82.940964 6.9052706 0.37441415
107.18722 6.8998208 0.48361099
81.769234 6.883544 0.6629827
107.26197 6.8250394 1.1174043
104.31464 6.7100873 1.6727228
83.027618 6.5863848 2.1088002
103.94214 6.4870362 2.3961453
72.585907 6.4566979 2.4794996
73.194107 6.4347525 2.5380797
70.961151 6.3695421 2.6927776
77.878471 6.1236167 3.214731
94.906769 6.0262246 3.393573
85.79464 5.8427091 3.7009764
97.672615 5.7035007 3.9105592
92.212135 5.6325712 4.0145936
92.844597 5.4300294 4.2843299
69.003448 5.298378 4.4440141
95.886307 4.8377542 4.941494
73.941422 4.450181 5.2958488
102.9576 4.7049098 5.0710492
69.093262 4.1960201 5.4988499
73.468369 3.9112511 5.7050929
97.630417 4.125977 5.5507154
80.405418 3.055104 6.2049146
98.241638 2.6924925 6.3718324
76.514725 2.4460502 6.4688768
79.205536 2.1697273 6.5662422
96.077705 2.6811202 6.3766189
103.49593 2.2928762 6.5248666
82.948792 1.5874376 6.7308688
93.724686 1.5220934 6.7457829
100.90077 1.049845 6.8369141
71.520752 0.73567653 6.8772459
82.419228 1.2735298 6.7974725
96.440483 0.88744134 6.8582277
106.72829 0.42753378 6.9027019
90.192551 0.40749246 6.9042039
81.921799 0.26691276 6.9108438
95.806236 0.013067871 6.9171743
93.336304 -0.18231174 6.9129534
97.205215 -0.26271895 6.9109483
74.572647 -0.54067731 6.8942227
100.7989 -0.75991958 6.874208
89.545441 -0.94501233 6.8510132
104.41482 -1.0395308 6.8387327
87.368851 -1.3211631 6.7890735
77.670456 -1.9480062 6.6357675
93.546364 -2.1821694 6.5620618
72.245789 -2.2203679 6.5492282
79.651337 -2.4808786 6.4552078
97.457848 -2.7100384 6.3639154
98.420059 -2.9867074 6.2390771
91.699684 -3.009403 6.2283444
77.14769 -3.327894 6.063798
103.97695 -3.4833605 5.9740391
85.667633 -3.6081448 5.9019184
94.781738 -3.8477163 5.7471867
106.47308 -3.9294538 5.6920061
89.181038 -4.2206717 5.4791908
77.457687 -4.4774413 5.2717915
89.778099 -4.6596498 5.1109915
78.741371 -4.9482298 4.8337398
104.59727 -5.1261621 4.6423607
69.167366 -5.3706012 4.3579416
99.499634 -5.3256721 4.4114861
74.577248 -5.5927176 4.0695505
95.571686 -5.6349277 4.011137
82.724121 -5.7966986 3.7738628
87.826736 -5.9462056 3.5316124
84.816139 -5.8618622 3.6696341
78.458252 -6.0413418 3.3658128
79.225357 -6.2274394 3.0068443
90.935196 -6.162385 3.1419313
69.662468 -6.3699665 2.6917708
106.07878 -6.4567771 2.4792814
80.900421 -6.5164237 2.3154027
73.563492 -6.5592456 2.1967824
79.343178 -6.7260718 1.609947
79.238014 -6.8107767 1.2092766
104.41702 -6.8130898 1.1966847
103.63052 -6.8325973 1.0672599
96.094482 -6.8727617 0.77073711
92.259857 -6.8953424 0.54507399
96.338898 -6.9007821 0.46435255
83.674881 -6.9097023 0.28561777
102.19498 -6.91535 0.16072741
84.965958 -6.91535 -0.1592938
94.912994 -6.7994766 -1.2651757
97.465172 -6.5757861 -2.1431594
70.977028 -6.5458746 -2.234488
74.850006 -6.3146114 -2.8230877
88.999702 -6.419106 -2.5751975
79.063263 -6.1956501 -3.0728555
88.74984 -6.0782404 -3.2980552
100.84339 -6.1995554 -3.0647464
82.154831 -5.8538566 -3.6827343
108.08254 -5.8877478 -3.6272743
69.531944 -5.7191753 -3.8875687
73.155357 -5.5236616 -4.160718
94.256622 -5.3902283 -4.3345509
89.99881 -5.4381304 -4.2736349
92.713303 -5.1971898 -4.5646048
71.947212 -5.1079173 -4.662024
76.031769 -4.8979478 -4.8827829
72.528511 -4.5517511 -5.2062125
84.289894 -4.9070845 -4.8738708
84.722107 -4.4568353 -5.2899766
76.635475 -3.9622993 -5.6683917
70.719475 -3.4138365 -6.0141788
87.280533 -3.3649585 -6.0423985
74.770218 -3.2191484 -6.1208143
70.173729 -2.751375 -6.345264
80.328415 -2.9433963 -6.2586203
108.61926 -2.5505989 -6.4278445
83.596779 -2.2019882 -6.5554032
75.840317 -1.7811583 -6.6827116
77.741516 -1.6082976 -6.7261076
83.425247 -1.6992531 -6.7053475
91.913055 -1.3517957 -6.7836723
104.41042 -0.93240845 -6.8525925
82.692734 -0.50151861 -6.8971577
101.3219 -0.58411878 -6.8909674
77.747551 -0.27649343 -6.910605
99.169998 -0.013810858 -6.9171553
94.391327 23.77656 -5.9858513
94.848602 18.507006 -5.9374366
95.613365 22.612637 -5.7784843
95.937424 23.047878 -5.6782718
95.725792 18.413908 -5.7444654
96.999702 22.662468 -5.1936922
97.441246 20.761707 -4.9142046
98.404076 16.998068 -4.0742493
98.454857 17.546793 -4.0171752
99.375275 18.084745 -2.6631052
99.74408 19.977795 -1.7286905
99.897766 21.036686 -1.0959955
99.960533 19.166 -0.66689253
99.649742 22.654064 2.0144663
99.343666 22.869667 2.727427
98.069336 23.98856 4.4060507
97.749199 23.34819 4.6822023
97.228928 17.118349 5.054749
95.639137 16.95257 5.7715702
91.380936 20.767828 -6
71.975021 22.193518 -6
79.459801 23.968184 -6
54.956253 20.320883 -6
90.381569 23.74505 -6
73.226379 22.990772 -6
71.398956 18.792456 -6
87.932922 20.315191 -6
63.863037 22.658871 -6
70.245087 20.279295 -6
37.282619 22.556498 -6
52.40382 21.267916 -6
46.770546 22.09042 -6
82.313469 19.487894 -6
90.627167 19.762306 -6
57.834854 20.113224 -6
89.461418 21.335785 -6
86.084175 20.138447 -6
80.780914 20.683863 -6
86.335777 19.763382 -6
70.848602 21.752367 -6
85.552719 20.384794 -6
75.478333 22.630022 -6
80.442039 19.469921 -6
82.006866 17.304934 -6
88.291824 17.776258 -6
63.336792 22.287888 -6
90.791481 21.301989 -6
86.022255 19.057257 -6
65.652573 21.213305 -6
71.912643 19.010183 -6
48.692711 20.131889 -6
65.870056 17.850683 -6
32.145409 22.287748 -6
52.876373 17.793636 -6
47.907219 19.026134 -6
43.982956 20.415092 -6
23.136631 21.776993 -6
82.485817 16.239248 -6
69.025047 17.818604 -6
28.365284 21.528744 -6
46.781315 17.689884 -6
48.594551 18.205328 -6
47.597469 16.029947 -6
29.71035 22.22105 -6
64.613609 17.339363 -6
37.982986 18.382244 -6
30.93969 20.216019 -6
31.973736 19.194347 -6
61.726257 18.993868 -6
54.219185 19.594954 -6
36.736042 18.991901 -6
26.473335 18.56118 -6
29.104107 20.279778 -6
36.872768 21.499058 -6
72.059593 16.744049 -6
33.515762 20.139416 -6
35.219299 20.96521 -6
57.232182 19.417952 -6
86.121666 16.508663 -6
44.559883 19.693497 6
76.86261 22.812634 6
31.498499 17.941448 6
25.699244 17.126604 6
55.706566 20.242924 6
30.250111 18.987978 6
23.825994 18.474157 6
74.734093 22.626261 6
47.530991 22.673615 6
51.295658 20.206896 6
61.746288 21.751816 6
28.036354 17.881241 6
27.591473 18.678579 6
49.858616 20.984055 6
67.984146 23.446167 6
49.53619 23.537031 6
83.921143 23.402979 6
78.873268 23.357012 6
46.989044 20.940283 6
28.086058 21.796747 6
24.728722 20.99358 6
35.561741 19.294695 6
31.425898 17.663477 6
33.54129 19.287354 6
26.738245 17.301512 6
43.932648 19.541739 6
45.393494 23.219145 6
91.756493 16.89665 6
59.29245 18.427231 6
65.230255 20.178864 6
75.513077 20.628822 6
89.109344 23.479164 6
30.385799 16.535158 6
31.342218 16.761501 6
81.231201 17.818352 6
90.625847 16.035368 6
87.123672 21.223547 6
91.286789 20.054054 6
34.945255 16.241825 6
79.110535 21.578743 6
47.543373 19.157272 6
60.201828 19.876856 6
44.437695 16.414337 6
80.100067 21.769115 6
91.538887 23.139452 6
72.105003 16.210852 6
70.417023 21.005953 6
86.899048 17.698166 6
93.467461 22.008308 6
71.808487 20.445456 6
41.036354 17.264088 6
86.528023 17.192129 6
82.357208 18.278889 6
87.133896 19.681047 6
83.840775 18.718777 6
64.713081 17.763794 6
43.76757 17.283257 6
76.770966 18.695459 6
98.242813 24 2.2154136
94.938751 24 -3.8166151
94.496712 24 2.7906036
95.196312 24 4.8670826
95.62249 24 -4.4571185
54.246674 24 1.3595734
33.941742 24 3.5668693
33.067276 24 -2.9082417
22.178532 24 -1.6837054
53.688705 24 2.2370205
36.366928 24 1.0504618
44.316883 24 1.0954337
66.03685 24 2.7681174
32.121269 24 4.6837573
72.127884 24 3.0739002
47.522987 24 3.6780429
71.01075 24 3.9688683
42.914684 24 4.6627607
40.887108 24 1.3866227
31.989971 24 -2.5927188
27.664925 24 4.8859491
34.733891 24 -2.1736155
70.436234 24 2.4482107
58.329517 24 5.3457193
74.799583 24 4.4545574
34.342041 24 0.76311731
55.949196 24 2.9195843
34.103546 24 3.0007753
33.56752 24 1.8959224
25.829071 24 2.8602376
37.508392 24 -0.53779626
73.303436 24 3.5804138
43.509666 24 4.149848
32.419647 24 5.4913754
44.645 24 -1.4684882
48.03582 24 0.20973921
27.638718 24 -0.40444303
28.147884 24 0.90686131
51.460308 24 5.332828
25.134544 24 3.0098813
35.834984 24 -0.41416335
64.142899 24 5.4594235
22.150631 24 5.7678156
23.413694 24 -4.2837257
35.564301 24 -0.52559876
62.357189 24 1.9782867
56.770908 24 0.70063829
84.957611 24 -3.6683891
58.650471 24 -5.5184622
72.172592 24 -1.3088818
49.055943 24 -1.0403967
38.290874 24 -2.9984355
37.29686 24 -5.5631199
86.771614 24 -5.8542056
72.522995 24 1.43363
57.497059 24 -5.088408
74.885254 24 -1.0015798
64.184593 24 -0.39574909
89.071213 24 -1.8929205
80.626999 24 0.56783199
82.904907 24 -4.0965319
93.159798 24 3.7743998
51.579693 24 -1.9326944
86.757133 24 1.2275572
79.745781 24 -0.85259724
64.871971 24 0.9527483
51.356911 24 -3.2492321
81.1511 24 -4.1581044
69.549835 24 -2.225523
53.339317 24 -5.7495065
55.837959 24 -4.0819812
90.372086 24 -1.2759857
46.844501 24 -4.8057299
22.849297 24 -5.724709
87.134605 24 -2.1036665
35.43787 24 -4.027482
49.834942 24 -1.7595806
59.534977 24 0.046484947
86.199799 24 -1.0865159
82.658066 24 -1.6772027
48.597973 24 -2.8084102
74.841629 24 1.0619164
84.711731 24 -1.090519
54.038971 24 -3.507503
74.847496 24 2.1137676
89.815559 24 -4.3428969
73.096992 24 -2.5207908
92.551468 24 -5.9292393
79.625275 24 -0.90200233
72.23288 24 1.1161852
86.607933 24 2.71875
87.479538 24 -1.1363521
77.992401 24 1.7148199
86.334824 24 -5.1168466
64.595352 16 1.6722584
45.611229 16 -0.12869024
66.863029 16 5.3485303
49.523129 16 1.4528217
38.749081 16 -0.34231663
25.475235 16 -2.3973732
58.132896 16 1.57341
37.339497 16 -0.45940495
22.944103 16 -1.1791458
26.401718 16 0.82323122
77.815643 16 5.5396547
48.435768 16 -0.24736023
28.047539 16 5.3837218
52.141891 16 2.8761292
39.170277 16 1.4127951
59.723331 16 5.8904414
33.125053 16 3.3874335
37.97382 16 2.5676558
47.354786 16 4.4930973
26.984844 16 -0.12366295
62.97604 16 5.1737547
43.161552 16 3.2671382
31.444727 16 5.7650113
71.751396 16 4.2380457
40.505497 16 2.3652349
56.486217 16 0.42240334
65.938461 16 5.2305923
44.854256 16 2.3221788
48.771786 16 0.29795933
56.830448 16 0.54807711
23.790287 16 2.7111144
34.882439 16 2.2332182
57.825264 16 3.6820817
34.593296 16 -3.15044
46.273373 16 -4.5386171
92.353424 16 1.535017
77.056038 16 3.1056938
55.612617 16 -1.5204506
47.058659 16 -2.1385794
46.091248 16 -2.6129127
76.37162 16 -4.9608455
89.603745 16 -0.60944653
65.415352 16 -5.708118
62.291161 16 -3.883213
56.590164 16 -4.7526183
