# .PCD v0.7 - Point Cloud Data file format
VERSION 0.7
FIELDS x y z
SIZE 4 4 4
TYPE F F F
COUNT 1 1 1
WIDTH 1092
HEIGHT 1
VIEWPOINT 0 0 0 1 0 0 0
POINTS 1092
DATA ascii
-427.77948 49.161892 148.21428
-431.09735 50.763615 145.66756
-426.04202 51.983017 148.31827
-427.46576 46.842682 149.18343
-429.25192 53.357925 145.86473
-430.32352 53.243233 145.23962
-430.63553 52.889732 145.17552
-429.50577 33.562546 151.48195
-432.77301 36.856274 148.79797
-428.9415 34.001198 151.71555
-429.97287 34.3908 151.01668
-430.64279 36.0546 150.24072
-428.12524 42.171265 150.1347
-426.13434 45.729591 150.32863
-425.97131 40.904007 151.78418
-432.35898 39.592808 148.31876
-429.13184 40.674919 149.95146
-432.72308 45.301945 146.4567
-426.95264 46.402744 149.63884
-431.75183 42.557583 147.8423
-432.16199 43.987007 147.17868
-432.38342 44.056431 147.02417
-431.79193 25.886652 151.66147
-427.34503 27.447186 153.97656
-432.19604 26.108944 151.38687
-431.95511 27.089642 151.35429
-431.50729 29.287161 151.21573
-432.6622 33.431133 149.63533
-426.92154 11.494008 156.21657
-431.72443 13.386038 153.28542
-431.62961 15.157763 153.20772
-428.78894 15.640512 154.8213
-425.85907 14.807629 156.5853
-430.47516 4.8239126 -154.51817
-432.78098 0.39609814 -153.29735
-432.79349 2.4732771 -153.23833
-432.00366 0.64287424 -153.73996
-425.83615 4.0872941 -157.21487
-430.1282 16.690142 153.91696
-429.92273 18.393673 153.82271
-432.95062 17.826391 152.13722
-425.70767 20.539558 155.99907
-430.83453 17.445387 153.41255
-425.88141 16.624586 156.3889
-428.07083 22.241198 154.41068
-430.68781 20.759251 153.07753
-430.98712 8.9265947 154.03827
-432.69867 9.0651321 153.03006
-431.80121 10.390092 153.4599
-431.0708 9.1995745 153.97014
-426.28152 4.7600517 156.94322
-428.82379 4.0569878 155.50043
-428.10107 3.073844 155.94008
-429.27396 2.5566907 155.27927
-432.5043 -0.3854084 153.41722
-430.85178 -4.6077733 154.32181
-427.12155 -4.4092965 156.46944
-429.07755 -6.7342901 155.28792
-426.11865 -4.4772577 157.04381
-426.77518 -6.491715 156.61646
-431.36911 -9.5378876 153.77222
-430.97437 -7.4012861 154.15356
-427.79102 -8.4698677 155.93498
-429.49399 -7.7483759 154.9926
-428.26257 -18.214741 154.80824
-428.33569 -16.703033 154.95525
-430.15207 -16.539387 153.92204
-429.64679 -17.896488 154.04507
-426.78769 -17.106457 155.80275
-428.85501 -13.544919 154.93997
-425.93854 -12.593417 156.70506
-426.44345 -8.6654739 156.70621
-425.95029 -8.7847252 156.98366
-428.92905 -14.920698 154.79387
-429.71738 -22.045925 153.4671
-427.94998 -22.454861 154.4516
-430.56674 -25.110264 152.51204
-432.80811 -28.333403 150.63814
-425.74976 -27.638176 154.87213
-429.6438 -27.540169 152.62119
-429.09677 -27.518156 152.94368
-432.94919 -28.289806 150.56364
-431.09814 -30.795527 151.1356
-428.37662 -32.014378 152.49802
-429.31134 -30.658503 152.23161
-430.70932 -39.430943 149.35455
-432.39346 -38.126194 148.71071
-431.0043 -39.85915 149.05699
-427.86121 -36.566662 151.76884
-430.38354 -34.384254 150.77528
-426.40808 -34.371952 153.12915
-427.01648 -38.155991 151.90565
-426.33533 -37.907005 152.36533
-432.90866 -42.117554 147.26801
-430.15063 -43.024673 148.67841
-432.25757 -42.532845 147.54262
-430.66318 -50.828735 145.90851
-426.91537 -51.262394 148.03165
-425.53455 -48.403713 149.82805
-432.17053 -49.48175 145.44858
-426.14465 -53.385101 147.78505
-432.07397 -49.821171 145.39297
-428.61163 -59.433228 143.90779
-426.89172 -60.499741 144.55121
-432.54141 -56.278419 142.71945
-427.45691 -57.832878 145.24887
-425.75272 -57.416351 146.46465
-429.32703 -54.295319 145.47261
-429.31461 -51.884483 146.36853
-430.54703 -53.324776 145.07039
-426.19592 -68.770256 141.24292
-428.64615 -71.690834 138.16273
-431.43045 -70.874619 136.78244
-426.40314 -62.49382 143.97572
-432.04932 -67.181122 138.26414
-427.1369 -62.463158 143.52216
-432.65005 -61.565197 140.41466
-430.34821 -59.728809 142.70923
-425.63873 -77.121849 137.20306
-427.55753 -80.481247 133.99214
-426.85553 -75.857849 137.12662
-430.71979 -77.342148 133.70923
-430.94904 -76.930824 133.79482
-430.64655 -75.545914 134.79482
-430.20578 -72.198616 136.89331
-425.84735 -92.941826 126.8661
-425.91583 -93.567268 126.3678
-426.12903 -92.316841 127.11535
-425.67429 -90.52858 128.72401
-428.10782 -88.015541 128.80229
-430.40253 -83.252884 130.30714
-428.68832 -87.57106 128.69699
-429.44937 -84.560028 130.11836
-429.91449 -85.890083 128.93948
-429.06516 -83.127342 131.30789
-430.03708 -81.271439 131.81705
-429.82907 -80.895386 132.19887
-431.69589 -82.643539 129.80301
-430.22101 -81.001869 131.86093
-428.45868 -95.691025 122.91938
-430.98776 -96.549965 120.37872
-427.27383 -97.440346 122.39368
-426.30093 -100.65598 120.54315
-429.85663 -96.057579 121.6013
-432.97928 -91.971794 122.44607
-431.11548 -93.650757 122.55917
-432.63654 -97.826637 118.09801
-429.43204 -101.21493 117.66897
-426.19696 -101.21825 120.14925
-431.09424 -100.52224 116.98367
-428.3566 -106.93156 113.34995
-426.05453 -107.57722 114.58322
-427.35031 -106.84414 114.2496
-430.07016 -108.55576 110.37897
-427.43793 -109.37226 111.71283
-426.63974 -105.5565 115.98146
-431.79065 -102.67741 114.56857
-427.38159 -102.46922 118.13658
-430.46024 -103.82892 114.57358
-428.04688 -104.30624 116.00475
-427.46829 -104.56802 116.21784
-425.6582 -116.72031 105.57465
-425.55746 -113.17258 109.48321
-427.7789 -114.9641 105.67677
-430.16977 -111.48195 107.41093
-429.9411 -113.46984 105.46157
-432.74084 -107.7036 109.03957
-430.6698 -108.84221 109.6099
-430.67288 -108.73751 109.71028
-431.2977 -114.81588 102.82077
-427.44263 -116.82713 103.94734
-430.59543 -117.06409 100.89602
-426.43216 -122.60006 98.025482
-425.53183 -118.65532 103.53087
-428.61841 -121.01003 97.967537
-426.55234 -119.40757 101.72279
-429.384 -118.85059 99.857216
-431.90692 -120.17941 95.948456
-429.53299 -122.7626 94.845757
-432.39322 -119.78989 95.991829
-426.56696 -128.50127 89.957535
-426.50879 -129.06488 89.190285
-427.21506 -124.31738 95.016899
-426.62454 -125.90775 93.483528
-426.32907 -126.71803 92.697098
-428.43225 -125.32719 92.51667
-430.73718 -123.49106 92.730667
-430.16522 -130.03917 83.956779
-427.57343 -133.49808 81.236893
-427.1225 -133.44609 81.818062
-428.58542 -132.75426 81.340836
-431.98172 -132.18999 78.527985
-431.67474 -138.4846 67.120628
-426.1362 -140.64693 70.008888
-431.49323 -138.80217 66.70298
-427.24182 -140.83095 68.153854
-426.95535 -140.05659 70.143456
-428.24301 -140.19897 68.132408
-426.15689 -137.04022 76.80352
-426.38821 -137.49667 75.686531
-432.26877 -136.50868 70.413239
-428.20953 -137.02319 74.36087
-431.4158 -132.82678 78.081848
-429.841 -134.34596 77.254189
-428.99103 -134.73451 77.575371
-429.56851 -135.39793 75.706245
-425.78983 -144.16301 62.952015
-427.71747 -144.84743 58.480377
-428.67676 -142.4536 62.741867
-426.85681 -145.16682 58.994213
-427.2403 -142.58971 64.488106
-428.01126 -141.73653 65.242714
-428.58719 -141.37576 65.220787
-432.55832 -138.54231 65.802139
-431.66705 -140.58507 62.692966
-429.58371 -145.86806 52.756714
-428.30536 -146.8186 52.293144
-429.21368 -145.68584 53.879116
-425.8175 -146.75067 56.660088
-426.66254 -146.2493 56.617649
-431.5528 -145.59833 50.189178
-428.66452 -145.006 56.600273
-432.04718 -143.84692 54.12537
-431.13486 -149.54898 37.678619
-426.4632 -151.7041 40.10046
-426.62634 -151.90904 38.915382
-428.33923 -151.23744 37.561722
-427.5658 -152.11609 35.913284
-432.60153 -147.04985 43.505306
-430.8364 -147.43607 45.728935
-426.29089 -149.88553 46.738472
-427.44705 -149.25157 46.517151
-428.70612 -148.02443 48.014736
-426.3956 -153.45642 32.976822
-430.79089 -151.65361 29.167124
-427.44833 -153.05029 31.937372
-432.39789 -150.6076 29.688007
-425.99728 -154.62201 28.364441
-428.19733 -152.60356 31.978249
-431.02948 -150.43298 34.240211
-425.53293 -156.93181 12.965755
-425.86136 -156.74323 12.947268
-426.8035 -155.72112 17.703611
-430.86407 -152.89362 21.324677
-427.58722 -154.18007 25.486568
-426.59805 -154.74507 25.570824
-431.85806 -152.39571 20.776794
-427.10779 -155.1492 20.91441
-432.56204 -151.34305 24.888237
-432.43036 -151.2672 25.84721
-432.91443 -152.96022 8.7937593
-430.67749 -154.30844 7.5244856
-430.95648 -154.11584 8.1724567
-426.08377 -156.96907 7.082808
-432.3194 -153.43149 6.1995921
-428.15326 -155.83559 5.9767694
-432.28177 -153.1031 11.72157
-426.59299 -156.83022 3.5456479
-431.1636 -154.18822 1.9407513
-428.68286 -155.59245 -4.3800325
-427.43625 -156.20117 -6.6768994
-430.24579 -154.67331 -4.6246252
-425.91788 -156.99045 -8.5161266
-426.71558 -156.67735 -5.5152621
-426.60605 -156.8255 -3.5304463
-430.76462 -154.43263 -0.93312097
-427.92267 -156.0679 -2.4820194
-427.81717 -155.72421 -11.709505
-428.84662 -155.1201 -11.795538
-432.71786 -153.12592 -6.8802204
-429.28601 -154.70888 -13.530509
-431.35757 -153.48178 -13.843299
-430.96042 -153.79865 -12.967793
-430.86234 -153.53836 -16.134804
-426.14032 -156.28905 -15.885539
-432.92316 -151.93796 -19.41473
-429.07285 -154.24144 -19.126057
-432.72385 -151.94763 -20.282074
-427.80432 -154.28691 -23.988464
-427.15991 -154.98782 -21.820484
-426.7804 -154.79439 -24.565708
-425.99252 -154.94223 -26.61974
-426.30682 -155.13805 -24.109776
-425.93457 -155.40123 -23.797718
-427.66635 -153.85574 -27.234432
-431.15186 -151.8058 -27.142725
-429.83832 -152.34682 -28.354774
-429.74359 -149.80576 -39.896473
-431.40482 -150.02657 -35.152325
-430.33896 -149.89236 -38.16687
-425.92258 -151.84357 -40.811001
-432.18103 -149.54814 -35.219727
-429.85861 -149.8817 -39.329796
-431.71555 -150.15511 -33.74678
-427.16162 -153.14906 -32.237801
-432.3306 -149.96947 -32.86866
-429.47693 -152.246 -29.942341
-432.55731 -149.73717 -33.355633
-426.39963 -150.04594 -46.024597
-428.56912 -148.66147 -46.290928
-429.80988 -147.89772 -46.352329
-431.1156 -147.68597 -44.497711
-427.67935 -148.66277 -48.018337
-432.3176 -147.26804 -43.51329
-430.56693 -148.57213 -42.609833
-429.12079 -149.58978 -42.083267
-432.83344 -147.86412 -40.163353
-432.55508 -141.94809 -58.133251
-425.77112 -146.36819 -57.745564
-426.96161 -143.50455 -62.766834
-428.3815 -145.5703 -55.581646
-427.18039 -147.1899 -53.15559
-431.52347 -144.88725 -52.16431
-429.57413 -145.60522 -53.476185
-430.5249 -146.01682 -50.699062
-428.9736 -139.08299 -69.508865
-425.76056 -141.84918 -68.01506
-425.96466 -140.55656 -70.429237
-427.46283 -140.22659 -69.132637
-432.04486 -138.42163 -66.819511
-432.5249 -138.54276 -65.932983
-431.90039 -139.9646 -63.733654
-426.10229 -138.41518 -74.346695
-428.62509 -136.39273 -75.02948
-426.13852 -139.55394 -72.212067
-431.40347 -134.93571 -74.366844
-431.7312 -135.08255 -73.703476
-429.87796 -138.209 -70.068756
-431.07861 -136.35571 -72.129204
-426.34979 -130.70685 -86.94548
-431.48221 -127.33662 -86.649185
-426.01611 -128.47719 -90.556427
-425.59448 -130.68314 -87.75132
-429.34631 -128.40675 -87.260025
-432.29874 -129.97086 -81.725479
-427.39853 -134.79477 -79.283737
-425.8483 -134.27142 -81.865089
-431.80032 -129.22841 -83.495003
-425.71567 -135.34523 -80.25544
-429.86288 -133.80675 -78.152809
-432.14612 -133.02173 -76.890976
-429.44891 -133.2691 -79.497856
-431.37201 -122.57398 -93.383064
-431.21347 -121.75329 -94.617172
-426.90732 -123.45984 -96.456024
-426.00931 -124.66042 -95.724358
-427.79114 -127.007 -90.876419
-432.19241 -126.20095 -87.570953
-427.33832 -127.14132 -91.144173
-429.85608 -126.97495 -88.83844
-430.3356 -115.19691 -103.24791
-428.32693 -115.75256 -104.35306
-427.63156 -114.21428 -106.60086
-429.60281 -115.64311 -103.38864
-427.61246 -116.084 -104.60201
-427.15427 -115.08483 -106.06754
-428.96765 -120.00663 -98.834404
-429.46744 -119.34825 -99.170135
-428.57892 -120.48434 -98.614243
-428.94223 -121.27283 -97.3255
-429.70706 -121.14021 -96.784676
-431.06418 -119.40259 -97.65152
-425.96866 -111.42249 -110.9057
-430.17142 -106.97166 -111.87885
-427.27713 -109.95042 -111.2929
-428.95175 -109.19476 -110.68794
-428.36087 -110.0008 -110.37527
-428.74707 -108.86343 -111.17513
-432.06708 -111.55786 -105.67778
-432.54977 -110.7024 -106.17062
-432.96994 -110.15747 -106.38907
-430.67236 -110.50576 -107.96934
-427.68536 -111.5902 -109.35777
-432.62466 -97.452278 -118.40264
-426.05228 -96.367867 -124.14109
-430.52734 -97.102997 -120.23643
-430.95361 -98.578613 -118.74355
-431.89734 -97.307114 -119.05772
-430.31332 -97.103279 -120.39491
-426.2345 -103.28107 -118.30082
-432.63629 -99.563942 -116.66928
-430.76489 -102.63556 -115.39442
-430.27563 -100.94838 -117.25875
-432.72513 -104.96106 -111.73115
-428.9957 -91.372894 -125.76753
-431.99356 -90.719864 -124.11604
-430.86221 -89.05632 -126.11247
-426.78506 -89.558403 -128.63609
-427.80283 -91.799889 -126.3045
-428.20938 -89.698486 -127.52766
-428.35867 -95.083107 -123.45338
-431.6557 -92.806221 -122.81265
-429.55542 -94.992538 -122.63699
-430.48318 -94.648315 -122.22149
-429.10349 -93.528732 -124.13374
-429.72479 -95.11055 -122.41766
-426.85416 -87.583374 -129.9561
-429.4375 -82.057266 -131.75984
-431.73355 -83.179848 -129.46577
-425.71182 -85.778427 -131.9025
-432.76266 -87.933983 -125.54254
-430.54739 -85.488937 -128.78438
-431.77774 -87.063805 -126.83546
-432.29337 -86.489616 -126.86322
-426.30887 -88.44944 -129.76027
-429.9588 -79.362099 -133.01534
-429.30267 -79.772957 -133.21756
-429.4855 -81.553383 -132.05228
-432.63614 -71.157593 -135.84946
-427.66507 -74.537567 -137.33438
-427.75253 -72.066353 -138.54468
-426.35284 -72.037956 -139.46526
-432.03979 -69.909401 -136.87535
-431.1629 -71.774536 -136.48677
-430.87494 -75.240288 -134.7906
-430.42349 -77.959007 -133.52252
-428.49707 -74.526703 -136.79115
-428.07788 -64.447617 -142.047
-429.74048 -63.604477 -141.38116
-430.44855 -65.09819 -140.26155
-429.84006 -65.124115 -140.63278
-428.44742 -61.294632 -143.23712
-427.49991 -65.69854 -141.84627
-431.77719 -68.248405 -137.87061
-432.83673 -67.673843 -137.46448
-432.30362 -65.993088 -138.64206
-432.00839 -68.71875 -137.48767
-425.93884 -51.797459 -148.44106
-426.32211 -51.654873 -148.25511
-429.35202 -52.592403 -146.09142
-428.90186 -49.405182 -147.43695
-426.1796 -49.586586 -149.03697
-428.89252 -51.535156 -146.72702
-431.51306 -54.821934 -143.91731
-426.35876 -58.465981 -145.67725
-431.54443 -56.351337 -143.29765
-429.68277 -55.193584 -144.90425
-429.88495 -54.111835 -145.20366
-431.59012 -60.064079 -141.75897
-430.48492 -59.788502 -142.56879
-432.38925 -58.628216 -141.84225
-432.12961 -58.600876 -142.01723
-432.04495 -43.931225 -147.31267
-426.3476 -45.428108 -150.28874
-430.33185 -43.700096 -148.39919
-430.24469 -43.795589 -148.42427
-430.05045 -44.842873 -148.24432
-432.8353 -46.826935 -145.88452
-427.15128 -35.511703 -152.43288
-427.0574 -37.847473 -151.95509
-426.27722 -35.173943 -153.02507
-425.77304 -32.526836 -153.92635
-427.55249 -37.687469 -151.69986
-431.51404 -39.778107 -148.78561
-429.4939 -38.653065 -150.28702
-429.97226 -39.576229 -149.76584
-432.5993 -38.450233 -148.46642
-425.57355 -20.332487 -156.10286
-432.58694 -20.894369 -151.96693
-432.17645 -22.064983 -152.0582
-431.75879 -19.900734 -152.57152
-426.21359 -24.697332 -155.11606
-432.54578 -24.362415 -151.446
-427.09842 -26.091923 -154.34904
-431.71863 -23.616079 -152.06471
-428.38843 -27.72414 -153.30153
-430.27267 -28.266508 -152.09477
-432.13834 -27.795017 -151.07726
-432.70673 -10.436804 -152.97502
-430.36691 -9.2505083 -154.41008
-425.5899 -10.801476 -157.04221
-427.73752 -9.5772562 -155.89836
-426.15216 -14.10673 -156.47105
-430.65549 -14.580042 -153.81654
-427.80386 -6.8279629 -156.0069
-432.1543 -8.180644 -153.42041
-432.98355 -5.5750484 -153.02849
-427.67624 -5.0721984 -156.12794
-432.03723 -1.5600111 -153.69771
-425.79019 -4.3816266 -157.23407
-432.43912 -2.9852331 -153.43015
-429.95981 -2.0325844 -154.88533
-430.7446 -3.7327394 -154.38983
-425.70926 8.6707516 -157.13321
-432.92691 11.138582 -152.79576
-432.45795 9.6666126 -153.17589
-428.48654 13.798785 -155.15108
-428.32202 8.0587893 -155.66106
-432.17834 7.6757469 -153.42419
-429.45883 22.895908 -153.52252
-427.88519 27.484951 -153.64008
-432.7865 22.754185 -151.58778
-425.58167 25.391747 -155.36575
-426.98047 23.228043 -154.92349
-429.93988 22.323774 -153.32225
-428.25089 19.327938 -154.67676
-428.44141 20.492811 -154.42033
-428.4747 21.085537 -154.32675
-430.19101 21.697279 -153.2552
-432.37756 13.183992 -152.95317
-432.23746 16.538052 -152.67897
-430.63263 17.245066 -153.54669
-425.68869 38.309219 -152.65628
-430.33847 35.802086 -150.4884
-427.79434 36.999992 -151.71423
-429.66357 29.395079 -152.25316
-431.15167 30.301035 -151.21291
-431.25015 27.986046 -151.56763
-430.80176 30.205645 -151.43651
-429.47943 31.187881 -152.04214
-429.97897 40.921726 -149.3913
-427.93137 43.32267 -149.93677
-430.83914 42.096951 -148.54776
-428.75323 40.511299 -150.23767
-428.43607 41.647602 -150.1071
-425.8428 54.88232 -147.40306
-426.87457 58.721184 -145.25783
-428.98383 56.168846 -144.9541
-426.44373 55.074123 -146.95587
-430.87421 51.381783 -145.56943
-426.77951 52.426296 -147.71684
-432.63739 50.06155 -144.93719
-426.74741 47.280556 -149.4653
-427.70709 51.887913 -147.33177
-429.58432 50.44178 -146.67226
-427.27127 46.976887 -149.24649
-429.97751 48.211548 -147.18132
-430.26297 47.330914 -147.29588
-432.96994 45.414669 -146.26637
-428.34238 64.390816 -141.90619
-426.97067 67.040604 -141.57378
-425.6301 66.833611 -142.5108
-428.28604 66.659378 -140.91801
-427.56894 63.441113 -142.82143
-430.30783 60.318428 -142.46371
-431.20856 60.156296 -141.96191
-430.12646 60.685692 -142.42787
-431.80643 68.566666 -137.69434
-428.89725 67.128632 -140.29935
-427.73407 75.006416 -137.02393
-431.02823 75.552635 -134.50786
-427.48596 75.438675 -136.94012
-425.69604 80.000542 -135.50211
-425.88986 79.338402 -135.7549
-425.97226 75.910255 -137.67911
-426.79034 74.858635 -137.73598
-430.82922 70.937813 -137.13173
-430.319 83.871017 -129.98601
-427.75992 85.880867 -130.43672
-431.52924 82.302773 -130.17186
-428.29504 80.872597 -133.25385
-431.69266 80.213638 -131.3472
-427.34427 81.832909 -133.3333
-432.29935 89.900574 -124.48872
-425.85342 88.731445 -129.88977
-432.25177 91.106575 -123.65532
-430.47586 91.958557 -124.29926
-430.68237 86.835281 -127.76756
-427.95215 103.77746 -116.54485
-429.30219 103.83899 -115.45471
-426.7937 103.70516 -117.4975
-429.93771 100.98392 -117.48669
-425.60721 102.50345 -119.46838
-427.07806 98.172897 -121.94098
-428.37067 97.916962 -121.18656
-426.21048 98.136475 -122.61335
-429.71347 97.219719 -120.74685
-429.98627 99.212532 -118.95535
-429.47202 96.560036 -121.45198
-430.03342 94.183044 -122.92443
-425.93387 108.48679 -113.79699
-425.72278 112.47655 -110.07463
-426.51584 111.35753 -110.53055
-425.55344 109.67001 -112.94778
-428.91714 104.90126 -114.80188
-429.01434 105.11538 -114.52888
-432.73688 102.37826 -114.08622
-432.65842 115.9363 -100.3703
-425.77496 121.84264 -99.513939
-426.58234 117.79121 -103.61705
-430.62567 117.89663 -99.859833
-428.55597 118.03136 -101.55822
-426.88773 112.86705 -108.68385
-426.20816 113.03225 -109.08231
-429.13074 111.05901 -108.69271
-429.78787 112.02833 -107.11366
-428.52155 112.6076 -107.57624
-427.60449 124.62694 -94.252762
-426.11194 123.94934 -96.565559
-425.67062 127.08824 -92.841003
-432.3609 121.82478 -93.43248
-429.30115 122.90385 -94.915337
-428.3685 125.30801 -92.627663
-431.05859 119.40485 -97.653893
-432.88589 119.97178 -95.287376
-432.18326 118.23507 -98.043747
-432.7164 117.8994 -97.962471
-426.29855 135.52135 -79.31868
-430.42792 130.11462 -83.57177
-425.724 134.26732 -82.010086
-425.7601 133.44742 -83.311661
-427.11292 127.63632 -90.670067
-426.06625 131.93629 -85.431656
-425.8045 130.79359 -87.374901
-428.229 128.16656 -88.752937
-426.29034 137.34171 -76.091988
-426.63666 138.62105 -73.326645
-426.37689 137.06624 -76.493843
-427.94745 136.82318 -75.053162
-430.71417 132.77576 -78.894348
-432.8378 131.27509 -78.985611
-425.64099 140.92192 -70.098724
-431.47629 138.19772 -68.036568
-427.95715 139.34692 -70.305382
-427.73608 140.55338 -68.092613
-429.5332 139.69229 -67.503441
-431.69864 137.31499 -69.480942
-429.79608 138.32724 -69.944031
-427.71042 139.30492 -70.707359
-427.67535 138.9715 -71.397934
-427.44223 139.47836 -70.713097
-426.7019 139.71272 -71.202316
-429.79654 145.49731 -53.397945
-425.73004 146.87547 -56.463173
-431.53546 143.81891 -55.079391
-430.42834 145.24936 -53.014671
-425.83612 145.64499 -59.364407
-425.93915 145.9118 -58.578072
-431.65347 142.299 -58.642807
-429.58566 144.09264 -57.465782
-431.85739 142.99356 -56.691635
-426.75858 143.21904 -63.746326
-429.52454 147.8463 -47.074272
-431.83807 147.19122 -44.695652
-428.55423 148.75253 -46.024681
-431.09827 147.52635 -45.048943
-429.91409 148.35123 -44.67926
-430.35013 145.87859 -51.405712
-432.45413 145.55994 -48.588089
-426.21875 154.59332 -27.847445
-429.35864 151.68651 -33.055416
-425.793 153.46426 -34.676048
-425.9487 154.71802 -28.019377
-427.3707 153.78235 -28.494423
-426.05554 153.49231 -33.770523
-428.50439 150.8253 -38.784512
-430.96008 149.35738 -38.818291
-432.68973 148.80721 -36.942387
-430.50604 149.80128 -38.13467
-426.91696 152.40202 -36.29718
-430.40628 151.8298 -29.270435
-428.5365 153.22523 -27.815477
-426.96454 154.44826 -26.152639
-428.16446 154.4881 -21.26646
-432.21692 151.75153 -23.812523
-432.21182 151.64296 -24.552349
-425.64343 155.78618 -22.365105
-428.5213 154.50832 -19.592749
-430.14688 153.63956 -18.879076
-431.71915 152.40918 -21.330267
-429.65616 154.27446 -15.736737
-426.11966 156.51663 -13.730341
-426.828 155.65923 -18.21265
-427.19507 156.05826 -12.107486
-426.7084 155.82025 -17.293369
-429.36163 154.90425 -10.208744
-430.41586 154.25874 -10.803176
-429.33667 154.89529 -10.651799
-428.02875 155.6485 -10.813422
-428.85251 155.12869 -11.56873
-428.53751 155.37218 -10.436044
-427.50204 156.30994 2.7055681
-432.31299 153.54172 -2.3042662
-432.51816 153.42368 -0.3635661
-428.03897 156.00099 0.11347747
-432.85666 153.16824 -4.4257526
-427.8045 155.91153 -8.1993599
-431.24463 154.0851 -4.7970867
-430.60126 154.47099 -4.545948
-431.9017 153.70267 5.017632
-429.83533 154.96324 1.9971664
-432.34631 153.44633 4.824399
-432.2077 153.55261 3.3912756
-431.98581 153.70384 2.1681061
-431.99451 153.49782 8.6093483
-425.97797 156.90047 9.6747675
-429.40665 155.14352 5.4180269
-432.23392 153.45883 6.6351519
-430.70459 154.22351 8.9141474
-432.05942 153.09731 13.258881
-429.53635 154.63962 12.528445
-432.2236 152.90694 14.323755
-430.86343 153.93672 11.688363
-428.19455 153.83508 25.422077
-431.44705 152.39214 22.392868
-430.03305 153.59711 19.877424
-430.1666 153.50885 19.945335
-429.65714 153.56859 21.523046
-428.01096 155.0593 17.321665
-428.27609 154.76123 18.764383
-431.68954 152.75601 19.02722
-428.24466 154.89203 17.63946
-425.62192 156.23068 19.456882
-425.78497 156.80107 12.811831
-427.13251 154.1528 27.360144
-427.37738 153.19966 31.403975
-428.30981 153.03819 29.50255
-431.14044 151.40742 29.372784
-425.65213 154.04672 32.209644
-429.93478 152.0379 29.745195
-429.44519 151.3224 34.502342
-426.39236 152.96573 35.309383
-432.82413 148.90837 36.157429
-425.91101 150.99474 43.890514
-426.64017 149.11948 48.534275
-426.87057 150.58418 43.3321
-429.96524 150.4622 36.817501
-426.3938 152.39761 37.538498
-429.12955 150.00352 40.566074
-427.10785 152.12337 36.951778
-429.81744 149.37392 41.435841
-430.0466 147.58752 46.791924
-431.06802 145.16562 52.192585
-426.9292 147.98849 51.391205
-426.16016 146.98546 55.43922
-426.56448 146.715 55.502941
-426.95624 147.93903 51.481712
-430.03589 143.58855 58.03537
-432.83548 143.27626 54.321991
-430.23123 143.69304 57.451275
-428.97058 144.53352 57.322323
-426.63058 144.00676 62.080517
-430.3046 142.59438 60.002834
-427.57428 144.07182 60.531868
-425.6069 144.0074 63.591438
-427.37244 144.78368 59.141422
-431.68637 139.16728 65.668495
-432.14716 138.73314 65.959084
-426.32855 143.02684 64.806488
-428.34146 137.23164 73.819061
-427.03821 139.31268 71.568382
-428.70306 138.24677 71.519157
-426.47089 138.43266 73.868141
-432.07672 135.45505 72.579506
-430.02603 139.8632 66.454292
-426.32452 142.85794 65.166779
-426.97452 140.79942 68.575401
-430.5733 139.21817 67.064659
-427.64624 140.8179 67.642197
-428.03992 140.89491 66.957832
-431.61301 134.12315 75.5392
-431.47443 133.15791 77.422562
-426.12408 135.85257 78.978394
-432.03015 131.31982 79.898651
-430.64941 131.60255 80.954926
-428.52197 132.20459 82.310112
-426.69659 132.45604 83.906761
-426.21387 123.17543 97.484436
-428.67108 123.64837 94.504028
-428.26523 125.70178 92.182281
-430.17496 124.80476 91.535439
-426.00769 130.27724 87.924248
-430.57324 128.22307 86.270821
-432.2059 129.20586 83.055428
-431.52374 128.72789 84.505341
-431.70331 129.07727 83.784248
-429.1864 129.93216 85.15847
-427.22183 119.59703 100.89896
-427.03491 119.54411 101.129
-425.71893 121.30685 100.20377
-430.85291 122.42014 94.029045
-429.82727 122.1451 95.371063
-431.00928 115.89265 101.85664
-431.88223 116.44889 100.45645
-429.95697 117.04469 101.48158
-432.01401 115.4712 101.44673
-429.12134 116.20763 103.16667
-427.32593 113.06526 108.1057
-426.54883 116.29689 105.27897
-426.6452 112.53744 109.24933
-432.41162 112.27611 104.66213
-429.85751 113.56997 105.4242
-431.75995 109.54828 108.02712
-430.75049 108.92087 109.46683
-432.04532 109.67448 107.67041
-431.64557 104.24302 113.29826
-430.09821 103.61715 115.03835
-429.39719 105.31515 114.07792
-430.33899 103.61756 114.85314
-431.40625 101.52245 115.88289
-426.27896 105.88464 115.96883
-427.92102 109.52384 111.17403
-432.98578 104.77131 111.71066
-425.93875 107.25565 114.99059
-429.69324 106.99592 112.20542
-428.49353 108.40445 111.80251
-430.6788 98.631981 118.9141
-428.35513 100.29401 119.28068
-428.1142 99.313133 120.28358
-431.52628 95.442558 120.86671
-429.2814 98.621033 119.97912
-429.10895 94.882851 123.08674
-427.75018 98.084846 121.5302
-432.31754 90.470306 124.03297
-431.99838 93.47924 122.0456
-431.93414 91.113846 123.83638
-429.77515 86.347908 128.73959
-431.49338 85.51384 128.09671
-428.28937 91.767738 125.97566
-431.1022 88.95118 126.00274
-429.11246 88.389801 127.81962
-427.97687 88.583336 128.48709
-427.974 90.797806 126.89702
-432.71182 80.640213 130.37131
-430.28 82.145851 131.09537
-427.57959 79.215111 134.70853
-428.85858 75.709854 135.88484
-426.53311 79.600159 135.1796
-427.03769 78.18322 135.66338
-428.52017 78.249214 134.64297
-425.70706 79.196869 135.95978
-430.23413 73.054222 136.41351
-431.64044 71.421646 136.35965
-431.38159 72.386307 136.01173
-429.45401 73.766457 136.54759
-427.95541 64.007759 142.3038
-427.09561 65.685005 142.0947
-431.02603 65.982307 139.45689
-430.52451 66.293526 139.63593
-431.53113 65.360153 139.41588
-428.48657 63.624973 142.1382
-429.08356 69.923576 138.78618
-426.55988 74.396446 138.12341
-426.29376 70.810707 140.13365
-432.92746 69.84935 136.34097
-431.78912 67.901459 138.075
-426.57535 71.514618 139.59087
-427.87091 60.623451 143.88419
-427.94135 55.919563 145.70067
-427.17294 60.605469 144.33604
-427.44675 59.752377 144.50182
-429.59729 56.980839 144.26166
-428.82492 54.981293 145.52333
-431.40753 56.08448 143.49568
-424.78003 19.057608 -156.29433
-424.61459 17.82243 -156.44911
-424.13055 32.609932 -154.05719
-425.33063 25.572886 -155.37079
-423.46045 23.762304 -155.69005
-425.32257 30.703924 -154.46605
-423.51721 23.793575 -155.68454
-423.85544 23.970921 -155.65326
-424.73505 26.969418 -155.12454
-425.17358 29.413397 -154.6936
-423.04642 38.726372 -152.66115
-423.4205 49.982292 -149.30717
-424.03018 47.857803 -150.02097
-424.79776 61.033653 -145.18935
-424.99567 63.241634 -144.20158
-423.65503 63.871609 -143.91733
-423.04288 62.550793 -144.51329
-425.35663 82.643608 -134.05904
-425.08948 86.853546 -131.33998
-423.09488 78.837296 -136.29208
-424.90213 82.063026 -134.4297
-424.8298 76.061981 -137.89441
-423.48227 91.728767 -127.97154
-424.64465 91.607536 -128.0587
-423.40143 95.854195 -124.94628
-425.11749 96.361282 -124.54189
-425.44742 101.89987 -120.06882
-424.85663 101.91531 -120.05519
-424.66248 107.1201 -115.46194
-423.47382 109.57298 -113.07014
-425.37866 111.07832 -111.60187
-424.97217 125.10392 -95.604874
-423.64444 126.97313 -93.137177
-424.93668 133.92618 -82.796585
-424.89639 135.50276 -80.216637
-424.51331 131.98758 -85.915245
-424.2811 129.96518 -88.881561
-424.9451 141.25859 -69.56115
-424.69482 142.11778 -67.777023
-423.63757 140.50374 -71.128616
-424.64105 142.00803 -68.004944
-424.72568 136.85205 -77.918053
-424.8782 137.18034 -77.315216
-423.83157 144.86031 -61.698181
-423.33847 146.15242 -58.632908
-424.93713 145.98302 -59.034763
-424.28607 148.75224 -51.662643
-423.8945 148.60979 -52.054016
-423.18912 149.64774 -49.029613
-424.7572 150.1627 -47.360126
-423.59683 151.93921 -41.37748
-424.41763 152.61115 -38.738647
-423.62933 156.18117 -20.224478
-425.06604 156.04091 -21.154987
-423.6326 156.01591 -21.320843
-424.52057 155.88623 -22.181263
-423.39011 155.44803 -25.088511
-423.96121 155.79474 -22.788185
-425.048 157.03987 -11.96712
-424.5657 157.44263 -4.0954485
-424.48267 157.45105 0.51833797
-423.19641 157.45105 2.0127275
-424.66852 157.4133 4.6830435
-423.54865 157.11031 10.754119
-424.61255 157.20497 8.8571396
-425.11478 157.44704 4.00705
-424.57159 156.35522 18.809151
-423.01511 156.57277 16.635084
-423.44522 156.88013 13.563532
-424.21732 154.65837 29.569963
-424.79593 153.85437 33.547119
-423.15604 154.87711 28.487949
-425.39835 154.25351 31.572666
-424.63696 152.37068 39.682987
-424.38788 152.57932 38.863663
-424.03802 149.93539 48.097057
-423.67578 149.3064 50.136246
-424.65039 142.43318 67.122086
-423.24509 140.62619 70.874367
-424.21085 143.71127 64.423988
-425.32153 135.21143 80.693367
-423.89972 132.41634 85.267334
-424.81509 138.96176 74.043991
-423.32599 136.78751 78.036583
-425.39966 128.50201 91.027657
-425.271 123.00329 98.360741
-424.0163 126.77662 93.396606
-424.87405 124.17782 96.827499
-423.95996 123.87341 97.229378
-423.37524 115.83817 106.643
-424.22333 117.87096 104.45217
-424.38354 117.01744 105.37205
-423.0419 108.91869 113.70831
-423.44196 110.72625 111.94527
-424.97952 91.337807 128.25262
-424.44348 92.036125 127.75057
-423.20508 91.107971 128.41788
-424.63959 95.168335 125.49323
-423.69827 100.66431 121.11034
-423.56631 88.243774 130.44208
-424.21396 83.102356 133.76274
-424.04233 88.126472 130.51784
-423.27612 88.553902 130.24178
-424.85471 73.809845 139.09668
-425.48959 70.482368 140.80258
-423.07999 78.917305 136.24588
-425.3349 64.81955 143.48959
-424.00467 63.452026 144.10664
-425.30814 44.815125 150.95537
-423.50577 52.098259 148.59625
-423.64331 52.38348 148.50041
-423.25125 33.061924 153.95403
-424.02103 38.094147 152.80545
-423.27905 34.495724 153.62677
-423.04773 34.365501 153.65649
-424.91852 18.766172 156.33084
-423.33072 27.26688 155.0721
-425.26709 28.366117 154.87827
-423.03073 30.191381 154.55643
-424.13739 8.3566151 157.2663
-425.31448 11.597177 157.02345
-423.8559 13.531498 156.87849
-424.09863 -3.3160923 157.4173
-423.91077 -3.5166805 157.41229
-423.23349 -4.7123699 157.38248
-424.44196 7.4622045 157.3139
-425.22992 5.8071594 157.35518
-423.49796 -12.307198 156.97025
-424.77621 -11.382858 157.03952
-423.19522 -16.410685 156.62602
-424.03326 -36.798679 153.10114
-423.27017 -33.399052 153.87708
-423.76758 -26.750427 155.16316
-423.70441 -29.713572 154.64069
-424.75061 -28.58297 154.84004
-424.37238 -26.572205 155.1946
-424.68787 -47.00106 150.30881
-423.46783 -48.672081 149.74738
-425.1626 -51.220215 148.89125
-423.93399 -44.135571 151.14656
-424.61096 -42.340736 151.65155
-423.17267 -43.339207 151.37062
-423.73169 -64.566528 143.60376
-424.15778 -59.802299 145.67262
-424.62653 -57.923088 146.41016
-425.40503 -75.676369 138.11703
-423.95828 -78.564552 136.44954
-424.7186 -76.5616 137.60596
-424.56073 -74.729874 138.625
-424.5567 -84.900566 132.60133
-424.19858 -91.765999 127.94478
-423.2655 -93.463875 126.72409
-423.63086 -92.809792 127.19434
-423.34198 -100.91495 120.91047
-424.60013 -112.48248 110.23229
-424.39462 -110.26921 112.39104
-423.33066 -109.09334 113.53796
-423.9436 -108.75773 113.8653
-423.01639 -108.45762 114.15803
-423.91257 -114.67784 107.89354
-425.07651 -114.78855 107.77422
-425.49728 -115.19422 107.33701
-425.13513 -114.10323 108.51283
-424.45935 -119.18217 102.91457
-425.43674 -122.80694 98.594734
-425.50314 -122.0219 99.530312
-423.36633 -126.21568 94.137146
-424.38995 -127.86781 91.956032
-425.24548 -128.19467 91.478432
-423.30124 -128.56676 90.932678
-425.24252 -128.47122 91.072807
-423.03525 -134.89893 81.204765
-423.54279 -133.90126 82.837372
-424.15094 -134.40694 82.009872
-423.26093 -132.83035 84.589828
-423.14368 -136.35365 78.824211
-425.26526 -139.58949 72.891281
-423.99124 -136.88739 77.853157
-425.28625 -139.33275 73.362732
-423.88242 -143.01123 65.921738
-424.92462 -145.31467 60.620308
-423.13516 -147.49892 55.106091
-424.40457 -150.55875 46.076176
-423.32861 -150.20676 47.217297
-423.05173 -155.78802 22.832823
-423.17783 -156.59505 16.412462
-423.19568 -157.21141 8.7282467
-425.05386 -157.45105 1.7615378
-425.02692 -157.45105 1.9937942
-423.8089 -157.19153 -9.1264763
-424.44141 -156.80634 -14.301046
-423.87238 -156.9973 -12.392636
-424.65225 -156.81877 -14.176661
-423.42169 -155.17094 -26.926874
-425.36157 -155.51895 -24.618002
-423.07877 -153.72543 -34.184914
-424.22623 -154.92436 -28.254187
-423.91626 -151.93892 -41.378654
-423.16211 -153.13257 -36.690933
-424.68491 -152.6998 -38.390491
-424.87888 -149.54753 -49.354477
-424.79126 -149.97632 -47.964405
-424.05783 -150.9518 -44.801956
-423.28836 -145.33282 -60.577232
-423.11447 -146.21468 -58.485203
-425.37839 -145.87073 -59.301163
-424.40643 -143.78665 -64.245163
-425.29065 -142.19238 -67.622101
-424.73523 -140.97556 -70.148888
-425.22079 -143.20105 -65.527596
-423.20694 -143.49892 -64.909058
-424.76581 -137.53073 -76.671791
-423.20123 -136.87173 -77.88192
-423.89667 -132.82317 -84.601601
-423.87863 -134.13354 -82.457237
-424.54468 -125.65437 -94.878174
-424.39886 -130.97078 -87.406631
-423.04523 -128.12088 -91.58667
-424.83508 -117.28203 -105.08688
-423.60846 -113.08029 -109.61528
-423.00415 -113.75375 -108.88947
-424.58231 -122.36697 -99.119072
-424.61444 -109.22793 -113.40668
-425.11572 -109.57721 -113.06601
-425.05899 -103.10706 -119.00348
-423.89941 -103.15977 -118.95695
-423.45926 -93.140381 -126.95667
-423.76917 -95.908821 -124.90272
-424.12991 -97.270332 -123.81695
-425.11621 -98.561035 -122.78764
-423.87619 -96.503105 -124.42879
-424.83423 -100.18863 -121.48969
-423.57031 -82.302498 -134.27934
-423.77298 -81.761185 -134.60396
-425.07883 -62.075417 -144.7278
-425.13037 -60.696938 -145.3215
-424.77814 -56.156113 -147.10364
-424.00174 -51.907871 -148.66022
-423.75314 -49.916367 -149.32933
-425.28644 -32.965492 -153.97603
-423.81079 -38.098835 -152.80438
-424.728 -31.948597 -154.20813
-424.90875 -38.705826 -152.66583
-425.2287 -16.223736 -156.64944
-424.67432 -19.911238 -156.18735
-424.28906 -10.733433 -157.08818
-424.2666 -8.7902298 -157.23381
-424.96243 -4.569716 -157.38603
