ply
format ascii 1.0
comment Humanplus generated
element vertex 1477
property float x
property float y
property float z
property uchar red
property uchar green
property uchar blue
end_header
846.875 598.489 3214 116 117 115
849.971 598.302 3213 109 107 99
853.066 598.116 3212 99 94 82
855.625 597.557 3209 88 90 83
858.981 597.557 3209 89 89 83
862.337 597.557 3209 89 92 83
867.311 598.675 3215 89 93 84
870.674 598.675 3215 88 91 83
874.308 598.861 3216 86 90 82
878.49 599.42 3219 84 88 86
876.103 595.509 3198 92 86 90
879.447 595.509 3198 100 101 102
980.88 563.481 3026 137 139 135
984.37 563.667 3027 136 139 134
987.535 563.667 3027 136 139 134
991.028 563.853 3028 136 139 134
992.225 562.736 3022 136 139 134
994.726 562.363 3020 136 139 133
997.224 561.991 3018 136 139 133
999.385 561.432 3015 135 139 133
1002.54 561.432 3015 136 139 134
1004.02 560.501 3010 136 139 134
1006.17 559.943 3007 137 140 134
1007.3 558.825 3001 137 141 134
1009.76 558.453 2999 136 141 135
1010.87 557.336 2993 135 141 134
1012.99 556.777 2990 136 139 134
1014.75 556.032 2986 136 140 134
1017.88 556.032 2986 140 140 135
1021 556.032 2986 144 144 137
1024.47 556.218 2987 135 144 138
1027.59 556.218 2987 125 131 128
1030.71 556.218 2987 121 119 117
1033.84 556.218 2987 116 116 111
1037.31 556.404 2988 115 115 106
1041.13 556.777 2990 114 115 106
1044.6 556.963 2991 113 113 106
1047.73 556.963 2991 112 113 106
1051.56 557.336 2993 113 113 106
1060.33 560.315 3009 113 113 106
1064.89 561.06 3013 116 113 106
1071.94 563.108 3024 118 118 111
1078.66 564.97 3034 129 120 117
1080.41 564.225 3030 139 127 128
1083.57 564.225 3030 139 137 138
1190.88 523.631 2812 143 147 138
1193.82 523.631 2812 144 147 139
1197.19 523.817 2813 145 147 138
1200.56 524.003 2814 145 146 138
1206.06 525.121 2820 144 146 137
1209.01 525.121 2820 142 146 136
1209.38 524.003 2814 140 144 136
1212.33 524.003 2814 142 144 136
1214.84 523.817 2813 143 142 135
1216.48 523.259 2810 143 139 135
1219.42 523.259 2810 143 138 134
1214.53 519.907 2792 141 136 133
1214.83 518.789 2786 138 135 133
1215.56 517.858 2781 135 133 132
1217.15 517.3 2778 132 132 131
1218.74 516.741 2775 131 130 130
1221.64 516.741 2775 130 130 130
837.016 599.599 3202 123 123 122
844.301 602.408 3217 124 119 116
846.875 601.847 3214 114 112 109
849.178 601.098 3210 104 102 95
852.535 601.098 3210 96 94 81
855.625 600.91 3209 89 88 82
858.981 600.91 3209 89 90 83
862.337 600.91 3209 89 92 84
867.042 601.847 3214 89 92 84
870.674 602.034 3215 88 91 83
874.308 602.221 3216 86 90 82
872.759 598.85 3198 84 87 88
873.637 597.165 3189 93 92 94
876.972 597.165 3189 102 103 106
976.99 564.395 3014 136 139 135
982.744 565.893 3022 136 140 135
985.904 565.893 3022 136 140 134
990.701 566.829 3027 136 140 134
992.225 565.893 3022 136 140 134
994.726 565.519 3020 137 139 134
997.884 565.519 3020 136 139 133
1000.71 565.331 3019 136 138 134
1003.54 565.144 3018 136 139 134
1005.36 564.395 3014 136 139 134
1007.17 563.646 3010 137 140 134
1008.64 562.71 3005 137 140 134
1010.44 561.961 3001 137 140 134
1012.9 561.586 2999 136 139 134
1015.02 561.024 2996 137 140 133
1017.81 560.837 2995 137 141 135
1020.26 560.463 2993 140 142 137
1022.37 559.901 2990 144 145 137
1024.81 559.526 2988 136 140 137
1027.93 559.526 2988 128 130 127
1031.06 559.526 2988 122 121 117
1034.18 559.526 2988 117 115 112
1037.31 559.526 2988 115 116 107
1040.78 559.714 2989 114 115 107
1043.91 559.714 2989 113 114 107
1047.38 559.901 2990 112 113 107
1051.56 560.463 2993 113 113 106
1059.98 563.271 3008 113 112 106
1065.6 564.582 3015 116 114 105
1071.94 566.268 3024 118 118 110
1077.59 567.578 3031 129 119 115
1080.41 567.391 3030 139 120 126
1083.57 567.391 3030 139 132 137
1187.88 523.947 2798 145 147 139
1197.19 526.756 2813 145 147 139
1200.13 526.756 2813 144 146 138
1203.5 526.943 2814 144 145 137
1208.59 527.88 2819 142 144 136
1209.38 526.943 2814 140 143 136
1212.33 526.943 2814 141 143 135
1214.84 526.756 2813 142 143 136
1209.55 523.198 2794 142 141 136
1210.74 522.449 2790 142 140 135
1212.79 522.075 2788 140 139 134
1213.09 520.951 2782 138 137 133
1214.69 520.389 2779 135 134 132
1215.84 519.64 2775 132 132 132
1217.86 519.266 2773 131 131 131
1220.76 519.266 2773 131 131 131
841.46 606.146 3219 123 124 121
844.564 605.958 3218 125 118 113
846.875 605.205 3214 112 111 106
849.178 604.451 3210 99 101 94
852.535 604.451 3210 94 91 82
855.625 604.263 3209 89 89 83
858.981 604.263 3209 89 90 83
862.337 604.263 3209 89 92 83
867.042 605.205 3214 89 92 84
870.674 605.393 3215 88 91 83
874.308 605.581 3216 86 90 83
871.94 601.627 3195 84 89 89
872.815 599.932 3186 94 92 96
876.147 599.932 3186 104 108 108
976.99 567.544 3014 136 139 135
980.142 567.544 3014 136 140 135
985.904 569.051 3022 136 140 135
989.064 569.051 3022 136 140 135
992.553 569.239 3023 137 140 135
994.726 568.674 3020 137 140 134
997.884 568.674 3020 137 139 134
1000.71 568.486 3019 136 139 134
1003.54 568.297 3018 136 139 135
1005.69 567.732 3015 136 140 135
1007.51 566.979 3011 137 140 135
1009.65 566.414 3008 137 140 135
1011.45 565.661 3004 137 139 135
1013.58 565.096 3001 137 140 134
1016.04 564.72 2999 138 142 134
1018.15 564.155 2996 138 143 135
1020.6 563.778 2994 141 143 136
1023.39 563.59 2993 143 144 137
1025.49 563.025 2990 137 142 139
1027.93 562.648 2988 130 132 129
1031.06 562.648 2988 124 121 120
1034.18 562.648 2988 118 117 114
1037.31 562.648 2988 116 117 108
1040.43 562.648 2988 113 116 108
1043.56 562.648 2988 113 115 108
1047.03 562.837 2989 112 114 107
1051.56 563.59 2993 113 113 106
1059.63 566.226 3007 113 113 105
1065.25 567.544 3014 116 113 105
1070.17 568.486 3019 118 116 110
1075.82 569.804 3026 129 117 116
1080.41 570.557 3030 139 123 127
1083.57 570.557 3030 139 127 138
1187.88 526.871 2798 145 147 140
1192.93 527.812 2803 144 147 139
1200.13 529.695 2813 144 147 139
1203.07 529.695 2813 144 145 137
1207.3 530.26 2816 142 142 136
1209.38 529.884 2814 140 143 135
1212.33 529.884 2814 141 143 135
1206.63 526.118 2794 141 143 136
1208.26 525.553 2791 141 143 136
1210.31 525.176 2789 141 142 135
1211.48 524.423 2785 140 142 134
1213.09 523.858 2782 138 138 133
1214.69 523.293 2779 135 134 132
1215.84 522.54 2775 131 132 131
1217.86 522.163 2773 131 131 131
1220.76 522.163 2773 131 131 131
840.697 611.403 3229 122 124 122
843.29 610.835 3226 124 123 120
845.351 609.888 3221 127 119 111
847.929 609.32 3218 111 108 102
849.178 607.805 3210 95 99 93
852.535 607.805 3210 92 92 83
855.892 607.805 3210 90 88 83
859.249 607.805 3210 90 90 83
862.606 607.805 3210 90 92 83
867.042 608.563 3214 88 92 83
870.944 608.941 3216 87 91 83
869.958 605.912 3200 87 89 83
871.94 604.965 3195 86 88 91
872.815 603.261 3186 96 98 98
876.147 603.261 3186 106 112 110
972.776 568.232 3001 136 139 135
980.142 570.693 3014 136 139 136
985.904 572.208 3022 136 140 136
989.064 572.208 3022 137 140 136
993.538 572.965 3026 137 140 135
995.714 572.397 3023 138 141 135
997.884 571.829 3020 138 140 135
1001.04 571.829 3020 137 139 135
1003.54 571.451 3018 137 139 135
1005.69 570.883 3015 137 140 135
1007.51 570.125 3011 137 140 135
1009.65 569.557 3008 137 141 135
1011.45 568.8 3004 137 140 135
1014.59 568.8 3004 137 139 135
1016.71 568.232 3001 138 142 135
1018.15 567.285 2996 139 144 135
1020.26 566.717 2993 140 144 134
1023.39 566.717 2993 142 145 138
1025.84 566.338 2991 136 142 141
1028.28 565.96 2989 130 135 132
1031.06 565.77 2988 125 124 122
1034.18 565.77 2988 120 116 116
1036.96 565.581 2987 117 116 109
1040.08 565.581 2987 115 116 109
1043.21 565.581 2987 114 115 108
1046.33 565.581 2987 113 114 107
1051.91 566.906 2994 113 114 105
1059.63 569.368 3007 114 113 105
1064.89 570.504 3013 115 114 105
1069.46 571.261 3017 117 115 111
1073.33 571.64 3019 126 120 116
1079.69 573.344 3028 136 129 128
1083.57 573.723 3030 137 136 139
1192.93 530.741 2803 145 147 140
1195.86 530.741 2803 144 147 139
1201.79 532.066 2810 144 146 137
1206.01 532.634 2813 143 145 135
1210.24 533.202 2816 142 145 135
1212.76 533.013 2815 142 144 135
1206.2 528.847 2793 141 143 136
1207.82 528.279 2790 141 143 136
1209.87 527.901 2788 141 144 135
1211.48 527.333 2785 140 142 134
1213.09 526.765 2782 139 138 133
1214.69 526.197 2779 135 134 131
1215.84 525.439 2775 131 132 131
1217.86 525.06 2773 131 132 130
1220.76 525.06 2773 132 131 131
1223.66 525.06 2773 131 131 132
844.082 617.252 3242 122 124 123
845.119 615.538 3233 125 123 122
846.926 614.396 3227 128 115 110
848.192 612.873 3219 110 104 98
851.03 612.492 3217 91 95 90
853.863 612.111 3215 91 89 83
857.225 612.111 3215 90 90 84
860.587 612.111 3215 90 91 84
863.949 612.111 3215 90 91 84
867.581 612.302 3216 88 91 84
871.486 612.682 3218 86 88 85
869.958 609.255 3200 87 85 87
871.94 608.303 3195 88 90 96
872.815 606.59 3186 98 101 105
876.147 606.59 3186 108 117 115
977.866 572.51 3007 136 139 135
985.904 575.365 3022 137 139 136
989.064 575.365 3022 137 140 135
993.866 576.317 3027 138 140 135
996.703 576.127 3026 139 140 135
999.537 575.937 3025 139 140 135
1002.7 575.937 3025 138 139 135
1005.53 575.746 3024 138 139 135
1006.69 574.604 3018 137 140 135
1008.18 573.652 3013 137 140 135
1009.98 572.89 3009 137 141 135
1011.78 572.129 3005 137 141 135
1014.59 571.938 3004 137 141 135
1016.71 571.367 3001 138 143 136
1018.15 570.415 2996 139 143 135
1020.26 569.844 2993 140 143 135
1023.05 569.654 2992 141 145 138
1025.84 569.463 2991 136 146 141
1028.28 569.083 2989 130 137 132
1031.06 568.892 2988 126 125 123
1034.18 568.892 2988 121 118 116
1036.96 568.702 2987 119 116 109
1040.08 568.702 2987 116 116 109
1043.21 568.702 2987 115 116 109
1046.33 568.702 2987 113 115 107
1051.91 570.034 2994 114 114 106
1059.63 572.51 3007 114 114 106
1064.89 573.652 3013 115 115 106
1068.4 573.842 3014 115 116 110
1068.35 572.129 3005 124 119 115
1071.49 572.129 3005 132 129 127
1192.93 533.67 2803 145 148 140
1195.86 533.67 2803 145 147 139
1200.08 534.241 2806 144 146 137
1203.87 534.622 2808 144 145 136
1207.67 535.002 2810 144 145 136
1210.6 535.002 2810 143 144 136
1206.2 531.766 2793 141 143 136
1206.96 530.814 2788 141 143 136
1208.57 530.242 2785 141 144 136
1210.61 529.862 2783 140 143 135
1213.09 529.671 2782 139 137 134
1215.12 529.291 2780 135 132 133
1217.15 528.91 2778 131 132 131
1217.86 527.958 2773 132 133 130
1220.76 527.958 2773 132 132 131
1223.66 527.958 2773 132 131 131
846.164 622.171 3250 122 125 124
846.165 619.682 3237 122 123 123
848.238 618.725 3232 122 115 108
850.037 617.576 3226 107 100 93
852.352 616.81 3222 92 87 88
854.925 616.236 3219 91 89 83
858.291 616.236 3219 90 91 84
861.658 616.236 3219 90 91 85
865.024 616.236 3219 90 90 85
868.391 616.236 3219 87 89 84
873.111 617.193 3224 84 86 87
869.958 612.599 3200 87 85 90
871.94 611.642 3195 91 85 101
872.815 609.919 3186 102 104 111
876.147 609.919 3186 113 124 121
977.866 575.651 3007 137 139 135
981.01 575.651 3007 137 139 135
989.064 578.523 3022 137 139 135
993.866 579.48 3027 137 139 134
997.691 579.863 3029 138 140 134
999.867 579.289 3026 137 140 134
1002.7 579.097 3025 137 139 135
1004.87 578.523 3022 136 139 135
1005.36 576.991 3014 136 139 135
1006.5 575.843 3008 136 140 135
1007.97 574.886 3003 137 140 135
1010.77 574.694 3002 138 141 134
1013.24 574.311 3000 139 140 136
1014.68 573.354 2995 139 142 137
1016.11 572.397 2990 140 142 136
1018.56 572.014 2988 140 143 135
1021.68 572.014 2988 141 144 138
1024.81 572.014 2988 136 144 140
1028.28 572.206 2989 131 141 132
1031.06 572.014 2988 126 127 123
1034.18 572.014 2988 121 116 116
1036.96 571.823 2987 119 117 109
1040.08 571.823 2987 116 117 110
1043.21 571.823 2987 115 116 110
1046.33 571.823 2987 114 115 108
1051.91 573.163 2994 114 115 106
1059.63 575.651 3007 115 115 106
1064.54 576.609 3012 114 115 106
1067.69 576.609 3012 114 114 110
1068.35 575.268 3005 122 118 113
1071.49 575.268 3005 130 123 126
1192.93 536.598 2803 147 149 141
1195.86 536.598 2803 146 148 139
1199.65 536.981 2805 145 146 138
1202.15 536.79 2804 144 145 136
1205.09 536.79 2804 144 144 136
1208.02 536.79 2804 143 144 136
1206.2 534.684 2793 142 143 136
1205.23 532.961 2784 142 143 136
1207.7 532.769 2783 142 144 136
1209.31 532.195 2780 141 142 136
1212.22 532.195 2780 141 136 135
1215.12 532.195 2780 137 134 134
1218.03 532.195 2780 133 132 132
1220.06 531.812 2778 132 133 130
1222.96 531.812 2778 132 133 130
1225.87 531.812 2778 132 132 130
1231.43 532.961 2784 132 131 131
846.685 625.951 3252 122 125 124
847.733 624.219 3243 119 127 124
849.55 623.064 3237 116 113 105
851.618 622.102 3232 104 92 86
854.469 621.717 3230 92 89 83
857.05 621.139 3227 91 90 81
860.424 621.139 3227 89 90 83
863.799 621.139 3227 89 90 85
867.174 621.139 3227 89 89 85
870.818 621.332 3228 86 88 84
875.819 622.487 3234 82 86 87
872.405 617.674 3209 88 83 90
872.486 615.365 3197 93 91 101
874.459 614.402 3192 105 104 111
876.422 613.44 3187 117 122 121
977.866 578.793 3007 137 138 136
981.01 578.793 3007 137 138 136
987.428 580.718 3017 137 138 135
993.21 582.258 3025 137 138 135
998.02 583.22 3030 136 139 135
1000.86 583.028 3029 136 139 135
1002.37 582.065 3024 135 139 135
1003.87 581.103 3019 135 139 135
1005.02 579.948 3013 135 139 135
1006.17 578.793 3007 136 139 135
1007.63 577.831 3002 136 140 135
1010.1 577.446 3000 138 141 135
1011.55 576.483 2995 140 141 135
1014 576.098 2993 140 141 136
1015.43 575.136 2988 140 142 135
1018.22 574.943 2987 141 143 135
1021 574.751 2986 141 144 138
1024.12 574.751 2986 137 144 141
1027.24 574.751 2986 132 139 132
1031.4 575.328 2989 127 126 124
1034.18 575.136 2988 121 119 116
1037.31 575.136 2988 119 117 108
1040.43 575.136 2988 116 117 109
1043.56 575.136 2988 116 117 110
1046.68 575.136 2988 115 116 108
1051.91 576.291 2994 115 116 107
1059.63 578.793 3007 115 116 107
1064.19 579.563 3011 114 115 107
1067.69 579.755 3012 112 115 110
1068.35 578.408 3005 120 116 113
1066.86 575.906 2992 128 124 125
1193.36 539.719 2804 148 149 138
1196.29 539.719 2804 147 148 140
1199.22 539.719 2804 145 146 138
1201.3 539.334 2802 145 146 137
1203.37 538.949 2800 144 145 136
1206.3 538.949 2800 143 144 136
1209.22 538.949 2800 142 143 136
1203.06 534.907 2779 142 142 136
1205.1 534.522 2777 142 143 136
1206.7 533.945 2774 142 143 136
1209.6 533.945 2774 142 140 136
1212.5 533.945 2774 138 137 136
1215.4 533.945 2774 134 135 134
1220.5 534.907 2779 133 134 132
1224.72 535.485 2782 132 134 131
1228.96 536.062 2785 132 134 131
1231.87 536.062 2785 132 133 131
1234.34 535.87 2784 130 134 132
847.727 630.123 3256 121 125 125
849.04 628.575 3248 117 124 125
851.125 627.607 3243 113 118 102
853.199 626.64 3238 102 97 78
856.32 626.446 3237 92 88 79
859.175 626.059 3235 90 89 79
862.558 626.059 3235 88 90 82
865.941 626.059 3235 88 90 85
869.324 626.059 3235 89 89 85
873.246 626.446 3237 85 88 84
877.986 627.414 3242 81 87 87
880.832 627.027 3240 87 88 90
881.765 625.285 3231 94 92 101
875.281 618.318 3195 108 109 111
876.422 616.77 3187 122 125 121
977.866 581.935 3007 137 137 137
981.01 581.935 3007 137 138 136
987.428 583.87 3017 137 138 136
993.21 585.418 3025 137 138 135
998.02 586.386 3030 136 138 135
1001.19 586.386 3030 136 138 135
1002.37 585.225 3024 135 138 135
1002.87 583.677 3016 135 139 135
1004.36 582.709 3011 135 138 135
1005.16 581.354 3004 136 139 135
1007.63 580.967 3002 136 139 135
1009.09 580 2997 138 141 135
1011.55 579.613 2995 140 142 135
1012.99 578.645 2990 140 142 134
1014.75 577.871 2986 140 142 135
1016.85 577.29 2983 141 143 135
1019.63 577.097 2982 141 143 138
1022.75 577.097 2982 137 144 141
1025.87 577.097 2982 133 143 133
1028.99 577.097 2982 127 129 125
1032.11 577.097 2982 121 116 116
1036.96 578.064 2987 118 116 107
1040.78 578.451 2989 115 116 108
1043.91 578.451 2989 116 117 109
1047.03 578.451 2989 116 117 108
1052.62 579.806 2996 116 117 107
1060.33 582.322 3009 115 116 107
1064.19 582.709 3011 115 115 107
1066.27 582.128 3008 114 114 110
1069.06 581.935 3007 121 117 112
1192.08 542.068 2801 148 150 136
1195.01 542.068 2801 146 148 140
1198.37 542.262 2802 145 145 139
1200.44 541.875 2800 144 145 138
1202.08 541.294 2797 144 145 137
1204.57 541.101 2796 143 145 135
1207.06 540.907 2795 143 143 135
1200.9 536.843 2774 142 142 135
1202.93 536.456 2772 142 141 136
1204.52 535.875 2769 141 143 136
1207.42 535.875 2769 141 143 137
1210.31 535.875 2769 137 140 137
1213.65 536.069 2770 133 137 135
1217.86 536.65 2773 133 135 133
1224.72 538.391 2782 133 134 132
1228.96 538.972 2785 133 134 131
1232.31 539.165 2786 133 134 132
1235.23 539.165 2786 131 134 133
848.508 634.109 3259 120 124 124
850.086 632.747 3252 115 125 122
852.175 631.774 3247 109 110 102
854.516 630.996 3243 101 91 82
857.908 630.996 3243 92 89 81
861.299 630.996 3243 90 88 81
864.691 630.996 3243 87 89 82
868.082 630.996 3243 88 89 84
871.742 631.19 3244 88 89 84
875.674 631.579 3246 84 88 84
880.423 632.552 3251 79 88 86
883.551 632.358 3250 87 89 89
881.765 628.661 3231 95 100 100
875.281 621.656 3195 111 115 111
878.622 621.656 3195 127 128 122
977.866 585.077 3007 137 138 136
981.337 585.271 3008 137 138 136
987.428 587.022 3017 137 138 135
993.21 588.579 3025 137 138 135
998.02 589.552 3030 136 138 135
1001.19 589.552 3030 136 138 135
1002.37 588.384 3024 135 139 135
1002.87 586.828 3016 135 139 135
1004.36 585.855 3011 135 139 135
1005.16 584.493 3004 136 139 135
1005.96 583.131 2997 136 140 135
1008.42 582.742 2995 138 140 134
1010.54 582.158 2992 140 141 134
1011.63 580.991 2986 140 142 134
1012.72 579.823 2980 140 142 134
1015.83 579.823 2980 141 143 135
1018.95 579.823 2980 141 144 138
1022.06 579.823 2980 137 145 141
1025.18 579.823 2980 133 142 133
1028.3 579.823 2980 127 130 126
1031.76 580.018 2981 121 119 116
1035.22 580.212 2982 118 114 106
1040.08 581.185 2987 114 116 108
1043.91 581.574 2989 116 117 109
1047.73 581.964 2991 117 117 108
1052.62 582.936 2996 116 117 108
1060.33 585.466 3009 115 116 107
1064.19 585.855 3011 116 114 107
1066.27 585.271 3008 116 115 110
1069.06 585.077 3007 122 116 113
1192.08 544.995 2801 148 147 135
1195.01 544.995 2801 146 148 140
1197.51 544.8 2800 144 146 139
1199.15 544.217 2797 144 145 138
1200.79 543.633 2794 144 146 137
1203.28 543.438 2793 144 146 136
1205.77 543.244 2792 143 145 135
1200.9 539.742 2774 142 143 135
1200.76 538.38 2767 141 142 134
1202.35 537.796 2764 140 143 134
1205.24 537.796 2764 139 142 134
1208.13 537.796 2764 136 141 134
1212.33 538.38 2767 132 137 133
1216.55 538.963 2770 133 135 132
1224.72 541.298 2782 134 134 132
1234.25 544.217 2797 134 134 132
1238.06 544.606 2799 133 134 132
1239.66 544.022 2796 131 133 133
1241.25 543.438 2793 129 132 132
1244.17 543.438 2793 127 129 132
848.247 637.318 3258 118 122 123
851.132 636.927 3256 112 118 119
853.224 635.949 3251 106 107 102
855.834 635.362 3248 99 96 85
858.966 635.166 3247 91 90 84
862.362 635.166 3247 89 89 82
865.757 635.166 3247 87 88 83
869.421 635.362 3248 87 89 83
873.355 635.753 3250 87 88 83
877.563 636.34 3253 85 88 83
882.319 637.318 3258 84 87 86
885.726 637.318 3258 93 92 88
881.219 631.645 3229 103 102 100
880.486 628.711 3214 117 118 111
878.622 624.994 3195 131 133 124
978.191 588.414 3008 136 138 135
983.946 589.979 3016 136 138 135
989.064 591.153 3022 136 138 135
994.523 592.522 3029 136 139 135
998.02 592.718 3030 136 139 135
1001.19 592.718 3030 136 139 134
1002.37 591.544 3024 135 139 134
1002.87 589.979 3016 135 139 134
1004.36 589.001 3011 135 139 135
1005.16 587.632 3004 136 139 135
1005.96 586.262 2997 137 140 134
1008.42 585.871 2995 138 141 133
1010.54 585.284 2992 139 141 134
1011.63 584.11 2986 139 142 134
1012.72 582.937 2980 139 142 134
1015.15 582.546 2978 140 143 134
1018.26 582.546 2978 141 144 137
1021.38 582.546 2978 137 146 140
1024.49 582.546 2978 133 148 133
1027.95 582.741 2979 127 130 126
1031.41 582.937 2980 121 115 116
1034.53 582.937 2980 118 116 105
1039.39 583.915 2985 115 117 107
1043.21 584.306 2987 116 117 109
1047.73 585.089 2991 117 117 109
1052.62 586.067 2996 116 116 108
1059.98 588.414 3008 114 116 107
1064.19 589.001 3011 116 115 106
1066.27 588.414 3008 118 115 110
1069.06 588.218 3007 122 118 114
1195.01 547.921 2801 146 148 140
1197.08 547.53 2799 144 146 139
1197.87 546.552 2794 144 146 137
1199.93 546.161 2792 145 146 137
1202.42 545.965 2791 144 146 136
1204.91 545.77 2790 144 146 135
1197.43 541.075 2766 142 143 134
1199.02 540.488 2763 141 140 133
1201.04 540.097 2761 139 139 132
1203.93 540.097 2761 137 139 132
1206.82 540.097 2761 134 137 131
1209.71 540.097 2761 131 134 131
1216.55 541.857 2770 132 133 131
1227.81 545.574 2789 133 132 132
1232.49 546.357 2793 133 133 132
1237.18 547.139 2797 133 134 133
1238.33 546.357 2793 132 133 133
1240.36 545.965 2791 130 132 132
1243.28 545.965 2791 128 130 131
1243.07 544.596 2784 126 126 128
847.727 640.329 3256 116 122 120
850.347 639.739 3253 110 117 114
853.487 639.542 3252 103 106 100
856.361 639.149 3250 97 95 87
859.495 638.952 3249 90 92 85
862.893 638.952 3249 89 89 84
866.29 638.952 3249 87 89 84
869.956 639.149 3250 87 89 84
874.161 639.739 3253 86 89 84
879.181 640.919 3259 87 88 84
882.048 640.526 3257 88 88 90
885.182 640.329 3256 99 91 96
880.946 634.822 3228 110 106 108
880.486 632.069 3214 123 120 120
883.847 632.069 3214 135 131 127
981.204 595.293 3027 134 138 136
985.02 595.687 3029 134 139 136
988.188 595.687 3029 135 139 136
991.355 595.687 3029 135 139 136
996.493 596.867 3035 136 139 136
999.338 596.67 3034 136 140 135
1001.19 595.883 3030 136 140 135
1002.7 594.9 3025 135 140 135
1002.87 593.13 3016 135 140 134
1004.36 592.147 3011 135 139 134
1005.16 590.77 3004 136 139 134
1005.96 589.394 2997 137 140 134
1008.42 589 2995 137 141 133
1010.54 588.41 2992 137 141 133
1011.63 587.23 2986 138 141 134
1012.72 586.05 2980 138 142 134
1015.15 585.657 2978 140 142 134
1018.26 585.657 2978 141 143 136
1021.38 585.657 2978 137 145 139
1024.49 585.657 2978 133 142 133
1027.95 585.854 2979 127 127 127
1031.07 585.854 2979 121 121 117
1034.53 586.05 2980 119 118 107
1037.99 586.247 2981 116 118 108
1042.51 587.034 2985 117 117 110
1047.03 587.82 2989 117 117 109
1051.56 588.607 2993 115 115 108
1058.92 590.967 3005 113 116 107
1063.83 591.95 3010 116 116 107
1066.62 591.754 3009 119 117 110
1069.06 591.36 3007 123 119 114
1072.21 591.36 3007 127 125 124
1195.8 549.865 2796 144 147 138
1197.01 549.078 2792 145 145 137
1199.07 548.685 2790 145 146 137
1201.99 548.685 2790 145 146 137
1194.54 543.965 2766 144 145 136
1196.13 543.375 2763 142 141 135
1195.55 541.802 2755 140 140 133
1198 541.605 2754 137 135 131
1200.88 541.605 2754 134 134 129
1203.76 541.605 2754 132 132 128
1206.64 541.605 2754 129 131 129
1212.15 542.785 2760 131 129 130
1225.61 547.505 2784 132 131 130
1230.72 548.488 2789 133 131 130
1233.64 548.488 2789 133 133 130
1237.44 548.881 2791 132 133 131
1240.36 548.881 2791 131 132 131
1242.39 548.488 2789 129 131 131
1243.07 547.505 2784 127 128 127
844.322 643.731 3256 118 126 126
846.945 643.138 3253 115 119 117
850.086 642.94 3252 105 111 108
853.487 642.94 3252 96 105 98
856.361 642.545 3250 93 96 88
859.76 642.545 3250 90 92 87
863.158 642.545 3250 89 90 85
866.557 642.545 3250 88 89 85
870.491 642.94 3252 88 89 85
876.042 644.522 3260 87 89 85
878.642 643.928 3257 89 88 85
881.506 643.533 3255 90 87 95
884.91 643.533 3255 101 97 104
880.946 638.195 3228 111 110 116
880.486 635.427 3214 123 125 128
883.847 635.427 3214 135 134 131
985.418 601.026 3040 135 138 136
988.597 601.026 3040 135 139 136
992.103 601.224 3041 135 139 136
995.61 601.422 3042 136 139 136
998.463 601.224 3041 136 139 136
1000.33 600.433 3037 136 140 136
1002.51 599.84 3034 136 140 136
1003.69 598.654 3028 136 139 135
1004.2 597.072 3020 135 139 134
1004.36 595.293 3011 135 138 134
1005.5 594.107 3005 136 139 133
1006.29 592.723 2998 137 139 133
1008.42 592.13 2995 137 140 133
1010.54 591.536 2992 137 140 133
1011.63 590.35 2986 138 141 133
1012.72 589.164 2980 139 141 133
1015.15 588.768 2978 140 142 133
1018.26 588.768 2978 141 142 136
1021.38 588.768 2978 137 144 138
1024.49 588.768 2978 133 148 133
1027.95 588.966 2979 127 131 128
1031.07 588.966 2979 122 122 118
1034.18 588.966 2979 119 120 108
1037.3 588.966 2979 117 119 109
1041.11 589.362 2981 117 118 110
1044.93 589.757 2983 117 117 109
1049.46 590.548 2987 115 116 108
1057.51 593.316 3001 114 115 108
1062.42 594.304 3006 115 116 107
1066.98 595.095 3010 117 116 110
1070.84 595.491 3012 122 119 113
1072.21 594.502 3007 127 122 123
1195.72 551.402 2789 145 146 137
1198.64 551.402 2789 145 145 138
1201.56 551.402 2789 145 146 138
1193.68 546.459 2764 144 146 137
1192.67 544.68 2755 142 145 135
1192.08 543.098 2747 141 143 132
1192.78 542.11 2742 137 137 129
1195.65 542.11 2742 134 131 127
1198.51 542.11 2742 132 131 125
1201.38 542.11 2742 130 129 127
1205.57 542.703 2745 130 131 128
1211.52 544.087 2752 131 132 128
1225.43 549.03 2777 132 133 127
1231.43 550.414 2784 132 132 128
1235.67 551.007 2787 132 133 129
1238.14 550.809 2786 132 133 130
1241.05 550.809 2786 130 132 130
1243.97 550.809 2786 129 131 127
843.544 646.536 3253 117 129 126
846.685 646.338 3252 113 117 115
850.086 646.338 3252 101 103 103
853.487 646.338 3252 89 98 96
856.361 645.94 3250 89 92 88
859.76 645.94 3250 89 92 87
863.158 645.94 3250 89 91 85
866.824 646.139 3251 89 90 85
870.491 646.338 3252 89 90 84
874.161 646.536 3253 88 88 84
877.293 646.338 3252 90 86 83
879.881 645.741 3249 92 91 94
882.464 645.145 3246 102 101 105
879.854 640.773 3224 112 118 118
880.486 638.785 3214 123 134 131
985.418 604.203 3040 136 137 136
992.825 606.786 3053 136 138 136
996.017 606.786 3053 136 139 136
998.228 606.19 3050 136 139 136
999.776 605.196 3045 136 139 136
1000.33 603.606 3037 136 140 136
1001.52 602.414 3031 136 140 136
1003.69 601.818 3028 136 139 135
1001.87 598.836 3013 135 138 134
1004.02 598.24 3010 134 138 133
1004.83 596.849 3003 136 138 133
1006.29 595.855 2998 137 139 133
1008.42 595.259 2995 137 139 134
1009.86 594.265 2990 137 140 134
1011.29 593.271 2985 138 140 134
1013.06 592.476 2981 139 141 134
1015.15 591.88 2978 140 143 134
1018.26 591.88 2978 140 142 136
1021.38 591.88 2978 137 142 138
1024.49 591.88 2978 133 141 134
1027.61 591.88 2978 128 127 129
1030.72 591.88 2978 122 122 119
1033.84 591.88 2978 120 120 109
1036.95 591.88 2978 118 119 110
1040.41 592.079 2979 117 119 111
1044.23 592.476 2981 116 118 110
1049.1 593.47 2986 115 116 109
1056.1 595.656 2997 114 115 108
1061.71 597.047 3004 115 115 108
1066.62 598.041 3009 115 117 110
1070.48 598.439 3011 121 118 113
1073.99 598.637 3012 127 125 122
1072.85 596.252 3000 132 137 131
1198.64 554.316 2789 145 146 138
1201.56 554.316 2789 145 148 138
1192.38 548.751 2761 144 147 137
1189.21 545.969 2747 143 148 136
1189.91 544.975 2742 141 144 134
1187.56 542.59 2730 138 140 131
1189.98 542.391 2729 134 134 129
1192.83 542.391 2729 132 130 128
1195.68 542.391 2729 130 133 130
1201.61 543.782 2736 130 135 132
1207.12 544.975 2742 130 136 131
1213.51 546.565 2750 131 135 130
1216.39 546.565 2750 131 134 129
1232.12 552.329 2779 132 132 128
1236.36 552.925 2782 132 133 128
1239.27 552.925 2782 132 133 129
1240.84 552.329 2779 131 132 127
839.055 651.733 3262 123 125 124
840.917 650.535 3256 122 126 125
843.544 649.935 3253 117 125 126
846.685 649.735 3252 113 118 112
850.086 649.735 3252 102 105 98
853.487 649.735 3252 92 93 93
856.361 649.336 3250 90 92 88
859.76 649.336 3250 89 92 87
863.158 649.336 3250 89 91 85
866.824 649.536 3251 88 90 84
870.491 649.735 3252 87 89 83
873.355 649.336 3250 86 87 82
875.135 648.137 3244 90 87 81
877.173 647.138 3239 93 90 93
879.201 646.139 3234 104 107 105
879.854 644.141 3224 114 126 119
880.486 642.143 3214 123 131 133
993.198 612.174 3064 136 138 135
994.776 611.175 3059 136 138 135
996.344 610.176 3054 136 139 135
997.574 608.977 3048 136 139 135
998.463 607.579 3041 136 139 135
999.008 605.98 3033 136 139 135
1000.53 604.981 3028 136 139 135
1000.71 603.183 3019 136 139 135
1000.88 601.385 3010 135 138 134
1002.02 600.186 3004 134 137 133
1003.16 598.987 2998 135 138 132
1005.28 598.388 2995 137 139 133
1007.07 597.589 2991 137 139 134
1008.51 596.59 2986 137 139 134
1009.94 595.591 2981 138 140 134
1011.7 594.792 2977 139 140 134
1013.79 594.192 2974 139 141 134
1016.9 594.192 2974 140 142 136
1020.01 594.192 2974 136 144 138
1023.12 594.192 2974 133 148 134
1026.23 594.192 2974 128 132 130
1029.34 594.192 2974 122 120 120
1032.45 594.192 2974 120 119 109
1035.56 594.192 2974 118 119 110
1039.37 594.592 2976 117 119 111
1043.53 595.191 2979 116 118 110
1048.75 596.39 2985 116 116 109
1055.05 598.188 2994 115 115 109
1060.65 599.587 3001 115 116 108
1065.92 600.786 3007 116 118 110
1070.13 601.385 3010 121 119 112
1073.99 601.784 3012 127 123 121
1072.85 599.387 3000 132 134 129
1192.38 551.636 2761 144 146 138
1184.45 546.641 2736 143 146 137
1184.27 545.242 2729 142 144 135
1186.25 544.843 2727 139 140 133
1186.49 543.644 2721 136 136 132
1189.33 543.644 2721 135 135 130
1192.18 543.644 2721 134 136 133
1195.03 543.644 2721 134 138 135
1199.63 544.443 2725 134 140 134
1205.57 545.842 2732 134 137 132
1212.41 547.64 2741 134 135 130
1219.27 549.438 2750 134 134 127
1233.25 554.433 2775 134 132 127
1235.71 554.233 2774 133 133 127
1238.61 554.233 2774 132 132 128
1241.51 554.233 2774 127 131 129
838.798 654.941 3261 123 125 121
840.658 653.736 3255 123 126 121
843.544 653.334 3253 118 127 122
846.685 653.133 3252 112 117 108
850.086 653.133 3252 103 106 94
853.487 653.133 3252 94 95 90
856.361 652.732 3250 92 92 86
859.76 652.732 3250 89 90 85
863.158 652.732 3250 88 89 84
866.557 652.732 3250 87 89 83
868.35 651.526 3244 86 87 83
870.399 650.522 3239 84 86 84
871.358 648.715 3230 89 85 86
872.84 647.309 3223 94 95 97
871.045 643.493 3204 105 110 109
874.396 643.493 3204 116 124 121
993.548 617.584 3075 135 137 136
993.198 615.375 3064 135 138 135
993.15 613.367 3054 135 139 135
994.386 612.162 3048 135 139 135
995.283 610.756 3041 135 139 135
995.18 608.747 3031 135 139 135
996.373 607.542 3025 135 139 135
997.554 606.337 3019 135 139 136
998.391 604.932 3012 135 139 135
998.881 603.325 3004 135 138 135
1000.02 602.12 2998 134 138 134
1001.48 601.116 2993 135 138 133
1003.61 600.513 2990 136 139 133
1005.39 599.71 2986 137 140 134
1006.82 598.705 2981 137 140 134
1008.24 597.701 2976 138 140 134
1010.34 597.099 2973 138 141 134
1012.42 596.496 2970 139 140 135
1015.53 596.496 2970 139 142 136
1018.63 596.496 2970 136 143 138
1021.74 596.496 2970 133 142 134
1025.19 596.697 2971 128 131 130
1028.3 596.697 2971 122 123 119
1031.41 596.697 2971 120 118 107
1034.86 596.898 2972 118 119 109
1038.67 597.3 2974 117 119 111
1042.48 597.701 2976 116 118 110
1048.05 599.107 2983 116 116 109
1054.34 600.915 2992 116 116 108
1059.94 602.321 2999 116 117 108
1065.56 603.726 3006 116 117 110
1070.13 604.53 3010 122 117 113
1073.27 604.53 3010 127 124 121
1183.4 547.692 2727 142 143 135
1183.64 546.487 2721 140 140 134
1186.05 546.286 2720 138 137 132
1187.15 545.483 2716 138 136 131
1189.99 545.483 2716 138 138 133
1192.83 545.483 2716 138 140 134
1196.11 545.684 2717 138 139 133
1202.48 547.29 2725 138 138 132
1208.43 548.696 2732 137 136 130
1215.27 550.504 2741 136 135 129
1221.7 552.11 2749 135 134 128
1231.7 555.324 2765 134 134 128
1231.91 554.119 2759 132 133 130
1221.37 548.094 2729 126 132 132
838.283 657.944 3259 122 123 117
840.658 657.137 3255 124 127 118
843.803 656.935 3254 113 124 118
846.945 656.733 3253 103 117 104
850.086 656.531 3252 97 101 89
853.224 656.329 3251 92 90 86
856.624 656.329 3251 90 90 83
859.495 655.925 3249 89 88 83
862.893 655.925 3249 88 88 83
865.224 655.118 3245 87 88 83
866.476 653.503 3237 85 87 82
865.83 650.474 3222 83 85 86
868.938 642.803 3184 120 128 123
990.223 614.741 3045 136 139 135
990.798 613.126 3037 136 140 135
992.01 611.914 3031 136 140 135
992.881 610.501 3024 135 139 135
993.409 608.886 3016 135 139 136
995.241 608.078 3012 135 139 136
995.739 606.463 3004 135 139 136
996.886 605.252 2998 135 139 135
998.353 604.243 2993 135 138 134
999.81 603.233 2988 136 139 133
1002.26 602.829 2986 137 139 134
1004.04 602.022 2982 137 140 134
1005.13 600.811 2976 138 142 134
1006.55 599.801 2971 138 142 134
1008.64 599.195 2968 138 142 135
1011.74 599.195 2968 139 142 135
1014.5 598.994 2967 140 143 137
1017.61 598.994 2967 137 144 138
1020.71 598.994 2967 134 146 134
1024.16 599.195 2968 128 133 130
1027.26 599.195 2968 122 121 118
1030.36 599.195 2968 120 118 105
1034.51 599.801 2971 118 118 108
1037.97 600.003 2972 117 119 111
1041.78 600.407 2974 116 119 110
1047 601.618 2980 116 117 108
1052.23 602.829 2986 116 115 108
1058.88 604.848 2996 116 116 107
1065.21 606.665 3005 116 116 111
1070.13 607.675 3010 120 118 114
1073.27 607.675 3010 124 122 122
1183.64 549.33 2721 140 141 134
1184.31 548.32 2716 138 136 133
1186.27 547.917 2714 138 137 132
1189.11 547.917 2714 138 138 133
1191.95 547.917 2714 138 138 133
1194.79 547.917 2714 138 138 133
1198.95 548.522 2717 137 137 132
1206.22 550.541 2727 137 135 131
1211.28 551.551 2732 136 135 130
1218.14 553.368 2741 135 135 130
1227.24 556.194 2755 134 135 129
1227.89 555.185 2750 133 135 132
1221.37 550.945 2729 130 134 134
1224.22 550.945 2729 126 133 129
837.254 660.537 3255 121 119 120
839.883 659.929 3252 124 125 117
843.284 659.929 3252 109 125 115
846.164 659.523 3250 94 106 101
849.563 659.523 3250 92 91 88
852.7 659.32 3249 89 90 85
856.097 659.32 3249 89 88 83
858.966 658.914 3247 88 88 83
862.096 658.711 3246 88 88 83
864.157 657.696 3241 87 88 82
864.335 655.261 3229 84 87 80
863.143 651.812 3212 81 85 84
865.663 643.694 3172 124 125 123
987.296 616.096 3036 136 139 136
987.861 614.472 3028 136 140 136
988.082 612.646 3019 136 140 136
989.926 611.834 3015 136 139 136
990.774 610.414 3008 135 139 136
992.598 609.602 3004 135 139 136
993.75 608.384 2998 135 139 136
995.223 607.37 2993 136 139 136
996.685 606.355 2988 136 139 135
998.806 605.746 2985 137 139 134
1001.93 605.746 2985 137 139 134
1004.04 605.138 2982 138 140 134
1005.13 603.92 2976 138 142 134
1006.55 602.905 2971 138 144 135
1008.64 602.297 2968 138 143 135
1010.38 601.485 2964 139 141 135
1013.48 601.485 2964 140 143 136
1016.58 601.485 2964 137 144 138
1019.68 601.485 2964 134 143 134
1023.47 601.891 2966 128 134 130
1026.57 601.891 2966 122 123 117
1029.67 601.891 2966 120 116 104
1033.47 602.297 2968 117 117 107
1037.62 602.905 2971 117 119 111
1041.43 603.311 2973 116 118 110
1046.29 604.326 2978 116 117 108
1051.17 605.341 2983 116 116 108
1056.41 606.558 2989 116 115 107
1063.79 608.993 3001 116 116 111
1068.7 610.008 3006 119 117 114
1073.27 610.82 3010 121 122 122
1183.64 552.173 2721 141 144 136
1184.31 551.158 2716 138 140 134
1185.4 550.346 2712 138 137 132
1188.24 550.346 2712 137 138 131
1191.07 550.346 2712 137 137 131
1193.91 550.346 2712 137 138 131
1198.07 550.955 2715 137 137 131
1203.56 552.173 2721 136 136 130
1209.51 553.593 2728 136 135 130
1218.14 556.231 2741 135 135 129
1221.45 556.434 2742 135 135 128
1224.77 556.637 2743 134 135 130
1221.37 553.796 2729 133 135 133
1224.22 553.796 2729 132 133 130
1224.38 552.579 2723 129 130 127
836.225 663.122 3251 122 122 122
839.109 662.714 3249 126 129 117
842.506 662.714 3249 109 115 111
845.644 662.511 3248 93 91 99
848.779 662.307 3247 91 90 86
852.175 662.307 3247 89 89 84
855.307 662.103 3246 88 89 82
858.701 662.103 3246 88 89 83
861.299 661.491 3243 87 88 83
863.091 660.267 3237 87 88 81
862.729 657.411 3223 84 86 78
860.993 653.536 3204 81 83 82
983.069 616.616 3023 137 139 138
983.946 615.188 3016 136 139 137
984.155 613.353 3007 136 139 137
985.33 612.129 3001 136 139 136
987.151 611.313 2997 136 139 136
989.624 610.905 2995 136 139 136
992.093 610.497 2993 136 139 136
994.558 610.089 2991 136 140 136
996.685 609.477 2988 137 140 135
998.806 608.865 2985 137 140 134
1001.93 608.865 2985 137 139 134
1004.04 608.253 2982 138 140 134
1004.79 606.825 2975 138 141 135
1006.55 606.009 2971 138 143 135
1008.3 605.194 2967 139 144 135
1010.04 604.378 2963 140 143 135
1013.14 604.378 2963 141 144 136
1016.23 604.378 2963 138 145 137
1019.33 604.378 2963 136 146 134
1022.78 604.582 2964 129 134 130
1025.88 604.582 2964 122 120 116
1028.98 604.582 2964 119 116 102
1032.77 604.99 2966 117 116 107
1037.27 605.805 2970 116 117 111
1041.08 606.213 2972 116 117 110
1044.89 606.621 2974 116 116 108
1050.11 607.845 2980 116 116 108
1055 608.865 2985 115 116 107
1062.37 611.313 2997 115 116 111
1068.35 612.945 3005 118 117 114
1072.56 613.557 3008 121 118 121
1183.64 555.016 2721 141 143 137
1184.31 553.996 2716 138 142 134
1185.4 553.18 2712 137 140 131
1188.24 553.18 2712 137 138 130
1191.07 553.18 2712 137 138 129
1193.91 553.18 2712 138 138 129
1198.07 553.792 2715 137 138 129
1203.56 555.016 2721 137 137 130
1209.51 556.444 2728 136 137 130
1215.92 558.075 2736 136 136 129
1218.78 558.075 2736 135 136 127
1224.77 559.503 2743 135 136 129
1221.82 556.852 2730 134 135 131
1221.53 555.424 2723 134 134 130
1224.38 555.424 2723 131 130 129
2147.52 707.589 3469 137 144 149
832.313 666.109 3249 119 120 119
835.196 665.699 3247 124 119 120
838.334 665.494 3246 128 123 110
841.728 665.494 3246 110 114 101
844.863 665.289 3245 91 97 92
847.995 665.084 3244 90 87 83
851.387 665.084 3244 88 88 82
854.516 664.879 3243 88 89 82
857.908 664.879 3243 88 89 82
860.502 664.264 3240 87 88 83
861.758 662.624 3232 86 87 81
860.855 659.344 3216 83 85 80
859.112 655.448 3197 80 82 84
858.409 652.373 3182 88 80 88
860.653 651.553 3178 95 98 101
863.705 651.348 3177 113 116 114
980.88 620.39 3026 137 139 138
980.792 618.34 3016 137 139 138
981.337 616.699 3008 137 138 137
982.519 615.469 3002 136 138 136
984.016 614.444 2997 136 138 136
986.162 613.829 2994 136 138 136
989.293 613.829 2994 136 139 136
992.093 613.624 2993 136 139 136
994.225 613.009 2990 137 140 136
996.018 612.189 2986 137 140 134
998.806 611.984 2985 137 140 133
1001.93 611.984 2985 137 140 133
1004.38 611.574 2983 138 141 134
1003.78 609.319 2972 138 142 135
1005.19 608.294 2967 139 143 136
1006.94 607.474 2963 139 143 136
1008.67 606.653 2959 140 143 136
1011.77 606.653 2959 141 144 137
1014.86 606.653 2959 139 146 138
1017.96 606.653 2959 137 144 136
1021.74 607.063 2961 130 136 133
1024.84 607.063 2961 122 122 118
1027.93 607.063 2961 119 111 102
1031.73 607.474 2963 116 115 106
1036.22 608.294 2967 116 117 110
1040.38 608.909 2970 115 116 109
1044.54 609.524 2973 115 114 107
1049.41 610.549 2978 115 116 107
1054.64 611.779 2984 115 117 108
1061.66 614.034 2995 114 116 110
1066.22 614.854 2999 118 115 113
1072.56 616.699 3008 121 119 119
1186.25 559.089 2727 142 143 137
1185.18 557.244 2718 137 144 136
1185.4 556.014 2712 137 142 135
1188.24 556.014 2712 137 140 133
1191.07 556.014 2712 138 138 131
1193.91 556.014 2712 138 138 130
1198.07 556.629 2715 138 139 129
1203.56 557.859 2721 138 139 130
1208.18 558.679 2725 137 138 131
1211.48 558.884 2726 136 137 130
1217 560.114 2732 136 136 129
1223.87 561.959 2741 135 136 129
1221.82 559.704 2730 135 135 130
1221.53 558.269 2723 135 135 130
1224.38 558.269 2723 133 134 130
2145.74 711.829 3472 138 145 149
2147.52 711.214 3469 137 144 149
828.405 669.092 3247 120 121 117
830.52 668.061 3242 122 120 117
833.91 668.061 3242 125 125 117
837.301 668.061 3242 129 130 104
840.691 668.061 3242 110 112 90
844.082 668.061 3242 91 96 85
846.949 667.649 3240 88 90 80
850.337 667.649 3240 86 88 81
853.726 667.649 3240 86 88 81
857.114 667.649 3240 87 88 82
858.909 666.413 3234 86 88 82
860.158 664.764 3226 85 88 82
859.249 661.467 3210 84 85 81
857.5 657.552 3191 84 80 86
858.409 655.697 3182 92 88 90
860.383 654.667 3177 101 100 103
975.369 620.048 3009 137 139 138
978.516 620.048 3009 137 138 138
979.379 618.606 3002 137 139 137
980.882 617.576 2997 136 138 136
983.031 616.957 2994 136 138 135
985.504 616.545 2992 136 137 135
988.633 616.545 2992 136 139 135
991.761 616.545 2992 137 139 136
993.893 615.927 2989 137 139 136
995.351 614.897 2984 137 139 134
998.472 614.897 2984 136 139 131
1001.26 614.691 2983 136 140 133
1003.7 614.279 2981 137 141 134
1002.09 611.394 2967 138 142 135
1003.5 610.363 2962 139 142 136
1004.56 609.127 2956 140 142 136
1007.31 608.921 2955 141 143 136
1010.4 608.921 2955 142 143 138
1013.49 608.921 2955 140 146 139
1016.58 608.921 2955 138 147 138
1019.67 608.921 2955 129 136 136
1022.76 608.921 2955 120 120 119
1025.85 608.921 2955 118 114 102
1031.03 610.157 2961 115 115 106
1035.52 610.981 2965 115 116 109
1039.33 611.394 2967 116 117 108
1043.48 612.012 2970 115 115 106
1048.35 613.042 2975 115 115 107
1054.64 614.897 2984 114 115 108
1060.6 616.545 2992 114 115 110
1066.22 617.988 2999 118 115 112
1072.56 619.842 3008 122 117 118
1184.95 561.32 2724 144 145 137
1185.18 560.083 2718 142 147 138
1187.15 559.671 2716 141 145 138
1189.99 559.671 2716 140 143 135
1192.39 559.465 2715 139 140 132
1195.23 559.465 2715 139 138 131
1198.07 559.465 2715 139 139 129
1202.23 560.083 2718 140 140 130
1205.96 560.496 2720 139 139 131
1211.48 561.732 2726 138 139 131
1216.11 562.556 2730 137 138 130
1222.53 564.205 2738 136 136 129
1222.71 562.968 2732 136 136 128
1221.53 561.114 2723 135 135 130
1223.03 560.496 2720 133 135 131
1225.88 560.496 2720 132 135 130
823.993 671.656 3243 121 122 119
826.619 671.034 3240 123 124 120
828.983 670.206 3236 124 125 119
832.367 670.206 3236 127 129 118
835.751 670.206 3236 129 121 108
839.135 670.206 3236 110 106 98
842.519 670.206 3236 90 95 90
845.381 669.792 3234 87 87 82
848.763 669.792 3234 83 87 81
852.145 669.792 3234 84 88 80
855.527 669.792 3234 85 88 80
857.315 668.549 3228 85 88 81
858.558 666.892 3220 84 87 81
857.375 663.371 3203 86 86 82
856.156 659.85 3186 87 87 88
857.06 657.987 3177 97 90 94
859.299 657.158 3173 106 107 105
973.749 622.157 3004 137 139 138
976.565 621.949 3003 137 139 137
977.748 620.707 2997 137 140 137
979.573 619.878 2993 136 139 136
982.046 619.464 2991 136 138 135
985.174 619.464 2991 135 138 135
988.302 619.464 2991 137 139 135
991.43 619.464 2991 138 139 136
993.893 619.05 2989 137 139 136
995.351 618.014 2984 136 138 133
998.137 617.807 2983 136 137 129
1000.59 617.393 2981 135 138 131
1002.36 616.565 2977 136 140 134
1000.4 613.458 2962 137 141 134
1001.81 612.422 2957 139 142 135
1002.18 610.766 2949 140 142 135
1005.26 610.766 2949 142 142 136
1008.35 610.766 2949 143 144 138
1011.43 610.766 2949 141 147 140
1014.52 610.766 2949 139 145 139
1017.6 610.766 2949 129 139 139
1021.03 610.973 2950 118 122 122
1024.81 611.387 2952 116 109 104
1028.94 612.008 2955 114 113 107
1034.83 613.665 2963 115 115 110
1038.62 614.079 2965 116 116 108
1043.13 614.908 2969 115 114 107
1048 615.943 2974 114 114 107
1054.64 618.014 2984 114 114 107
1059.89 619.257 2990 113 114 109
1064.79 620.293 2995 118 113 111
1072.56 622.985 3008 123 119 116
1182.1 564.166 2724 146 146 138
1184.95 564.166 2724 146 146 138
1185.18 562.923 2718 146 147 138
1187.15 562.509 2716 144 147 139
1189.99 562.509 2716 142 144 136
1192.39 562.302 2715 141 141 133
1195.23 562.302 2715 140 140 131
1198.07 562.302 2715 141 140 130
1202.23 562.923 2718 141 140 130
1205.52 563.13 2719 140 140 131
1210.59 564.166 2724 139 140 131
1214.77 564.787 2727 138 139 131
1221.2 566.444 2735 137 138 130
1223.61 566.237 2734 136 136 128
1221.53 563.959 2723 135 135 130
1223.03 563.338 2720 134 136 131
1225.88 563.338 2720 132 134 130
817.081 677.75 3256 114 113 113
818.47 676.085 3248 113 116 117
819.337 674.003 3238 116 121 121
820.944 672.546 3231 119 125 122
823.813 672.13 3229 122 125 122
826.934 671.922 3228 124 128 120
829.28 671.089 3224 120 124 118
832.652 671.089 3224 117 119 112
836.024 671.089 3224 104 104 105
840.176 671.714 3227 92 89 94
843.29 671.505 3226 88 87 83
846.663 671.505 3226 85 86 81
850.037 671.505 3226 85 87 79
853.411 671.505 3226 86 86 79
855.722 670.673 3222 85 87 79
856.958 669.008 3214 84 86 81
856.572 666.093 3200 87 87 83
856.156 663.179 3186 89 90 90
857.06 661.306 3177 99 97 97
859.299 660.473 3173 110 111 108
973.749 625.295 3004 137 139 137
974.939 624.046 2998 137 139 137
976.443 623.006 2993 136 139 137
978.591 622.381 2990 136 138 136
981.39 622.173 2989 135 138 135
984.516 622.173 2989 135 138 135
987.641 622.173 2989 136 139 135
990.767 622.173 2989 138 139 136
993.893 622.173 2989 136 139 136
995.351 621.132 2984 135 137 132
997.468 620.508 2981 135 137 127
1000.59 620.508 2981 135 136 130
1002.02 619.467 2976 136 139 133
999.052 615.72 2958 137 140 134
999.435 614.055 2950 138 141 134
1002.18 613.847 2949 139 141 135
1004.24 613.222 2946 140 142 135
1007.32 613.222 2946 142 142 138
1010.06 613.014 2945 140 145 140
1013.14 613.014 2945 138 148 141
1016.22 613.014 2945 130 138 142
1019.99 613.43 2947 122 119 124
1024.12 614.055 2950 119 114 106
1027.9 614.471 2952 116 114 108
1034.48 616.553 2962 116 116 110
1038.62 617.177 2965 116 117 109
1043.13 618.01 2969 115 115 107
1048 619.051 2974 115 114 107
1054.64 621.132 2984 114 114 106
1057.76 621.132 2984 114 114 108
1063.37 622.589 2991 118 115 109
1070.42 624.879 3002 122 116 115
1182.1 567.012 2724 147 147 138
1184.95 567.012 2724 147 147 138
1185.18 565.763 2718 147 148 139
1187.15 565.347 2716 145 147 140
1189.99 565.347 2716 144 145 137
1192.39 565.139 2715 143 142 134
1195.23 565.139 2715 142 139 132
1198.07 565.139 2715 142 140 130
1202.23 565.763 2718 142 141 131
1205.52 565.971 2719 141 141 131
1210.14 566.804 2723 140 141 132
1214.33 567.428 2726 138 140 132
1219.41 568.469 2731 137 139 130
1224.06 569.302 2735 136 137 128
1222.43 567.22 2725 136 134 130
1223.03 566.179 2720 134 135 131
1225.88 566.179 2720 133 133 131
813.557 686.8 3283 188 186 184
814.502 684.708 3273 143 141 152
813.676 681.152 3256 97 119 131
815.074 679.478 3248 105 117 111
815.95 677.386 3238 113 119 115
817.059 675.504 3229 115 123 120
818.403 673.83 3221 117 123 120
821.772 673.83 3221 121 123 120
825.14 673.83 3221 124 124 118
827.48 672.993 3217 114 120 115
830.844 672.993 3217 104 111 106
834.208 672.993 3217 99 100 96
838.093 673.412 3219 93 92 89
841.721 673.621 3220 90 85 81
845.088 673.621 3220 87 85 80
848.456 673.621 3220 87 86 79
852.088 673.83 3221 86 87 79
854.394 672.993 3217 85 87 79
856.158 671.738 3211 84 87 81
856.572 669.437 3200 88 85 83
856.156 666.508 3186 91 91 91
857.06 664.625 3177 102 98 99
859.299 663.789 3173 113 110 109
972.128 627.388 2999 136 139 137
973.963 626.551 2995 136 138 137
975.79 625.714 2991 136 137 137
978.591 625.505 2990 135 138 136
981.39 625.296 2989 135 138 136
984.516 625.296 2989 134 138 135
982.024 621.74 2972 136 138 135
985.132 621.74 2972 137 139 136
988.24 621.74 2972 136 139 137
995.685 624.459 2985 134 138 133
997.468 623.622 2981 135 136 129
1000.59 623.622 2981 135 138 131
1002.02 622.576 2976 136 139 133
999.052 618.811 2958 136 140 133
999.435 617.137 2950 137 140 134
1001.5 616.51 2947 138 141 134
1004.24 616.3 2946 139 141 134
1006.64 615.882 2944 140 142 136
1009.72 615.882 2944 138 144 138
1012.8 615.882 2944 136 146 139
1015.87 615.882 2944 131 145 140
1019.3 616.091 2945 125 127 124
1023.07 616.51 2947 121 115 108
1027.55 617.346 2951 117 116 109
1034.13 619.438 2961 116 117 111
1038.62 620.275 2965 115 116 110
1043.13 621.112 2969 115 115 109
1048 622.158 2974 115 115 108
1054.64 624.25 2984 115 115 108
1057.76 624.25 2984 115 115 109
1061.59 624.668 2986 118 115 110
1059.01 621.321 2970 120 119 116
1183.15 571.741 2733 146 148 137
1187.74 572.578 2737 147 148 137
1187.12 570.904 2729 148 148 138
1188.67 570.277 2726 148 148 138
1188.02 568.603 2718 147 148 139
1190.43 568.394 2717 145 146 137
1193.27 568.394 2717 144 142 135
1196.11 568.394 2717 143 142 133
1199.39 568.603 2718 143 141 132
1202.23 568.603 2718 143 142 132
1205.52 568.812 2719 142 142 133
1210.14 569.649 2723 140 141 133
1214.33 570.277 2726 139 141 134
1219.41 571.323 2731 137 140 132
1224.06 572.159 2735 137 140 130
1223.78 570.695 2728 136 136 130
1223.03 569.021 2720 135 135 131
1225.88 569.021 2720 133 133 131
813.557 690.231 3283 182 179 170
813.257 687.077 3268 141 134 131
813.176 684.133 3254 99 99 120
813.568 681.611 3242 107 113 108
